NCOLS 166
NROWS 40
XLLCORNER -155
YLLCORNER 48.5
CELLSIZE 0.5 
NODATA_value -3.4e+38 
1832.22502409701 1399.24798023397 1281.97686814952 1034.9219192049 1218.38084660151 1344.53924238399 1191.74227980679 962.83699353939 1635.10411318902 1543.10193977634 1849.80427523545 1625.04340626495 1194.32195797265 1407.55610333109 1665.07069573866 814.071722925304 1351.35591588106 1263.22985373908 999.184143359423 771.831842259843 881.283126993643 972.149160229406 711.300722012024 590.044926643277 820.289597561451 533.936850336876 573.54229054159 456.457800900359 369.330503537317 297.948567867329 284.62942069052 334.829743169038 382.30440351007 453.928065645819 613.043265738809 792.608520584653 440.763125369739 325.312775545951 236.618244487122 14.4380717854566 15 15 19.1724441804339 26.1384318699622 214.346692446092 273.787937756413 257.024125946332 213.103076782662 118.939908452291 251.061222853344 168.837794466971 68.8235135225189 91.5635263353558 140.375718952188 160.72973469883 196.602893219998 269.740550015551 260.123453841062 248.282421586304 233.232791892818 297.376555194101 351.001819010376 420.862172551888 478.30928969718 499.82529528585 546.188276886763 417.120307855918 501.807307524503 653.929200330672 688.270717818679 558 634.296942596389 324.558227214213 275.69590894432 241.433992563121 251.428383056302 228.277049673996 239.386051867185 168.34170635539 81.411660038966 30.760432395114 9.08250095056381 -3.4e+38 -3.4e+38 -3.4e+38 -3.4e+38 24.777134292295 -3.4e+38 -3.4e+38 -3.4e+38 -3.4e+38 -3.4e+38 28.0290079464694 23.6573023007567 -3.4e+38 -3.4e+38 -3.4e+38 75.9853772706193 145.572557349257 24.7880395199309 1 -3.4e+38 -3.4e+38 -3.4e+38 -3.4e+38 -3.4e+38 -3.4e+38 -3.4e+38 -3.4e+38 -3.4e+38 -3.4e+38 -3.4e+38 -3.4e+38 20.7655233068264 26.2387030436597 43.6975625187887 5.5373569745725 -3.4e+38 -3.4e+38 -3.4e+38 -3.4e+38 2.55619917880196 31.9958659674358 58.8133203121292 131.849504127745 187.632592004298 265.703411021418 163.367917990601 58.9035288572493 2 82.1918269424419 110.705328849845 68.1718766680166 -3.4e+38 -3.4e+38 -3.4e+38 9 -3.4e+38 129.172629315566 297.800322988913 303.314704501145 387.547495178865 339.980281520102 270.325284343818 285.811189331642 10.1310006121739 -3.4e+38 -3.4e+38 -3.4e+38 -3.4e+38 -3.4e+38 -3.4e+38 -3.4e+38 -3.4e+38 -3.4e+38 -3.4e+38 -3.4e+38 8.75828782596253 7.55267617247324 1 -3.4e+38 -3.4e+38 -3.4e+38 -3.4e+38 53.0574641446716 77.4610522170049
1131.09507855544 1050.1544555726 991.915519016931 896.327147440415 1090.02616089908 744.049180785682 1183.09121410401 1130.54202712894 1204.19401572008 1244.65415089178 567.17231040718 1502.67204714097 1554.12583032788 798.697488811012 622.747808486192 730.34509579081 934.768969619733 629.3024689255 654.945852495383 940.714462686433 908.56946526337 696.231525644289 373.063223422854 637.625343796215 544.910547301964 348.781532497953 599.867753407672 587.147600521707 762.033033122054 373.51832106895 456.572947400958 298.325709338748 314.176907903645 360.847857045238 525.385580383964 1016.60922650996 811.514106014033 618.7928127139 530.842648277654 5.84080496515231 6 6 66.5779623994663 124.814421639829 259.790051250087 235.464727272153 155.929833051013 266.840806425008 212.453778114451 265.282833134392 174.889491876864 200.657278527208 174.01074406861 202.284810056166 317.628047709091 319.123286192043 269.40038975328 263.03445291321 221.604375979251 226.586296454621 245.725394695675 259 335.529381028489 361.101407756683 417.417517137494 401.071583445192 380.692737103961 478.430575203599 468.390642612327 510.960236532265 395.204705046759 400.792014253751 335.847362176533 390.213162575929 396.116903984734 224.274994719637 99.4935123326067 39.9400151186989 9.66912445674676 34.2586464278094 69.8509403576219 -3.4e+38 -3.4e+38 -3.4e+38 -3.4e+38 -3.4e+38 60.8665509588429 104.3125217398 158.021950147635 144.348396872899 128.684716725609 -3.4e+38 -3.4e+38 -3.4e+38 80.1216011963811 98.9352084660762 102.710446790099 97.4923578992619 100.253904760967 54.546936747086 41.635923344189 25.6474812155582 52.6441052662128 34.346138553399 17.5910217730099 -3.4e+38 -3.4e+38 -3.4e+38 8.28468315481411 24.9540102182231 5.3834214173276 1 1 3.91503509224269 -3.4e+38 -3.4e+38 23.9566608031075 16.7090911416371 -3.4e+38 85.9270379965032 104.750508463825 162.671060475876 90.074765708742 271.642350291817 231.174583344184 235.103453158082 241.133939782497 159.598929161817 330.341547442449 210.603710787644 188.800124093863 210.048017670635 331.604348086174 142.100327637272 -3.4e+38 -3.4e+38 -3.4e+38 163.163604074434 400.36110605481 333.348916049414 381.952405248811 424.878432069697 352.206855708382 350.369572525396 255.22763771726 196.919316542915 14.0579611650027 -3.4e+38 -3.4e+38 -3.4e+38 -3.4e+38 -3.4e+38 -3.4e+38 -3.4e+38 -3.4e+38 1.68062234378319 64 55.348793322638 24.0989484385799 2 -3.4e+38 -3.4e+38 -3.4e+38 -3.4e+38 -3.4e+38 58.3726116897305
1092.41178148731 1137.35483819932 506.34600072525 326.214240188442 375.138951954369 994.420382480278 656.638617151374 932.616176091745 305.168920062345 308.927772362686 733.823882786367 651.973870060373 462.09933419924 619.837047744214 626.361869061437 730.006106900862 623.853911448557 556.431504510625 348.325651884162 249.938397921052 283.871469581953 229.004683098491 270.807831728091 321.969811855154 320.112105219556 350.762202503573 354.583880138781 344.364066880192 444.65114935566 451.466461776263 445.453729743078 475.801481145396 581.164210608403 464.189438261978 306.365377817793 284.045376874061 440.048846306712 1047.72396339415 523.247694957627 358.22979844487 34.0802118155166 68.1067684944068 58.6463440548157 90.958186475858 57.196722733746 91.2879214506017 185.186495778671 301.937021713874 220.899949000328 62.7666483888244 325.754907416765 314.382248273916 250.073534685214 289.510672084851 342.198844068144 289.52141967269 307.770145956463 347.773748599468 247 385.597189895943 270.677815503975 260.33265450262 274.663366587611 322.345522756833 374.227630605178 450.076254829632 541.916479954492 438.189435795769 318.609829141134 317.966907183008 353.184773488732 335.502333971338 333.3426840494 273.230583047637 277.995035101993 410.779947780799 418.25659727546 332.868041210071 439.977907519666 274.549526161699 463.184056600319 417.215353067958 442.13700086591 384.365833264162 391.496132348682 349.146592428477 392.972980142921 345.54356002341 298.957263970352 350 315.021142269114 293.564155303278 98.2753077293223 35.8499838665033 -3.4e+38 152.460572467835 200.813779360773 182.987662002062 174.768995500711 168.161558528654 143.378760142234 135.981339733648 117.147059045279 97.7469920755783 114.294844967389 71.8142135662561 77.434875278355 89.8947366793092 84.7234164886009 72.1509917699556 69.3273732306714 80.2761397172924 70.3561437210653 38.2535707410605 80.9240131011142 55.9244524122197 11.1327929079322 3.58428802958333 29.6391537253415 -3.4e+38 191.620772672608 165.73404822726 213.787135916338 189.660278322569 309.473653448512 214.926478878746 349.859322113257 275.808755601878 433.93165672185 393.394718321246 310.811023492063 318.304509716537 265.903230796571 294.274272972279 135.116323817299 -3.4e+38 66.5573509611248 186.759261167249 215.496060152169 220.307664509011 200.738712020066 288.298308600198 324.722809720814 315.181336244861 233.854401460256 198.990059632142 141.18620290705 -3.4e+38 -3.4e+38 -3.4e+38 -3.4e+38 -3.4e+38 -3.4e+38 -3.4e+38 -3.4e+38 -3.4e+38 3.5646539576858 1.02628021577473 -3.4e+38 -3.4e+38 -3.4e+38 -3.4e+38 -3.4e+38 -3.4e+38 -3.4e+38 -3.4e+38
387.846248928172 230.357800204759 301.618723669018 345.595223326256 357.872188340752 261.533503768814 156.99433414269 279.603563265354 484.657779553577 487.648016561382 931.219568031143 716.504764424201 299.892529352321 256.200368515895 240.652974482601 209.582788289614 189.893346439326 131.54021940325 125.170170019817 135 135.325367861262 145.247446604725 167.340811091112 327.700435897713 345.583856041221 326.500948555991 481.075365330565 664.778070200364 857.957368480473 521.591706216088 680.259887675222 781.940055877493 715.886756944122 390.132594980228 392.905541468753 390.561424450384 470.625495826461 867.105617488001 551.191434560153 330.427818757483 127.178508179023 144.265828364354 81.8262871539843 70.5024821985005 122.789455935546 149.594249983979 169.772819524773 161.739250129438 252.64018924055 93.4057339469265 83.4923086180754 200.648068484301 168.8256451809 166.538051983454 223.269290478 253.528344253772 294.036603597508 261.189603030831 379.159589005385 298 286.374741868344 300.195324230896 326.317141591609 394.739832742807 585.777868999771 571.141459910463 302.548909590819 156 156 156 156.13432268114 262.68275411499 407.305279269582 457.705237963058 427.88728381658 443.702030428265 453.03101278892 387.705531406643 404.909560239128 508.855047483896 537.553221224279 486.027873384547 508.654208096632 436.440186355624 529.814842587906 531.236198064357 504.341756955108 420.129524000292 489.069327308696 449.590314745008 442.005658203001 364.233423379719 225.710694811868 358.665957711982 -3.4e+38 197.35399655706 235.369290492483 247.347916209764 248.399368738495 255.400053031807 224.110023015627 198.339380142977 190.645294710971 171.443715786069 190.464052342478 152.231531183063 161.404430383505 148.575707624129 148.752036045666 160.980731313403 140.80045592571 113.329425564979 121.194148570903 136.108816017384 122.851160038312 124.487399123102 89.5592370942302 69.7811408667275 88.4264451899589 83.0623203970632 278.657027483817 352.291397853942 314.806416875742 331.558393482831 209.198302620419 154.308095341172 220.676718502358 389.144650844534 407.249464563006 414.769209869189 476.246037860137 293 433.278611325181 356.956044169953 339.668531522282 188.711150194977 92.6391729395445 121.605794688788 162.552460773737 156.668693363118 151.145669013005 103.076300137696 221.084467877984 250.274819021089 156.836324056829 39.1860608064537 -3.4e+38 -3.4e+38 -3.4e+38 -3.4e+38 -3.4e+38 -3.4e+38 -3.4e+38 -3.4e+38 -3.4e+38 -3.4e+38 -3.4e+38 -3.4e+38 -3.4e+38 -3.4e+38 -3.4e+38 -3.4e+38 -3.4e+38 -3.4e+38 6.49512705212244 27.5377234325558
120.05401432973 343.719968232324 266.734089674909 248.381005106999 355.451028277842 197.034226370585 373.840107294013 215.109628770833 613.997812701061 596.057091940408 128.721140022063 95.7607191832161 96.3003171309246 100 100 103.990426527045 110.864702680504 126.640136490918 135 138.995485111092 148.943780214642 163.832868386497 239.250123703666 243.740410614424 407.220423601824 416.93723897532 261.850328475897 389.449183454323 700.111870746063 953.720037053712 773.37620118057 708.555440868559 397.697207766669 410.372624387805 494.807538876496 495.675088785292 582.278520775822 613.097130493798 972.407860846836 572.336071475531 582.514175081935 366.826130394642 185.365818159598 150.611878712286 167.714277392661 162.367802083513 175.076141931599 129.233326633467 95.9281265219938 83.6285799004612 78.4734198189098 102.664803215072 91.2745823375269 148.539064823468 280.448438549658 77.1494592233052 231.688448501269 246.661101310861 273.222782090533 294.944482996573 157 157 157 157 157.341077414827 157 156 156 156 156 155 155 155 155 189.341448367035 303.168397673444 368.358557261163 421.228476393971 423.308218327931 492.280946281567 485.810296923792 422.868112717599 421.08502348794 379 437.362943550605 578.297676749123 589.235660743095 463.7056817487 465.26070642265 376.25078010125 445.182628633984 461.687197084168 430.64311828799 468.842651677868 357.378253318674 144.915494221016 320.621009205337 298.439959388807 319.824699835925 257.880210891231 242.828952785901 236.78691228671 239.065169735883 218.521848471461 206.15515138275 189.28758726907 182.629319517341 199.159248646827 172.336714853616 191.526140751576 175.825007553012 156.018051160623 177.492282021931 143.257825232376 123.004908153874 145.959334165906 143.928495957055 145.102339162918 184.009457922688 174.269703658692 316.187364671235 307.613613351298 301 347.61919602433 390.611895320258 266.172442270797 322.869933644705 385.882465331503 249.671475686414 361.676756104595 445.897425436182 376.158498648101 309.793472025925 354.608995110107 261.252497009677 188.402602886498 90.3705108274791 34.5006122182661 -3.4e+38 -3.4e+38 125.850450498509 -3.4e+38 41.4541547838944 -3.4e+38 -3.4e+38 -3.4e+38 -3.4e+38 -3.4e+38 -3.4e+38 -3.4e+38 -3.4e+38 -3.4e+38 -3.4e+38 -3.4e+38 -3.4e+38 -3.4e+38 -3.4e+38 -3.4e+38 -3.4e+38 -3.4e+38 -3.4e+38 1 7.22734530027676 19.8808872272693 49.3490188733063 72.5429266321225
74.6786048199365 134.029350559814 295.617822939831 356.894220987376 366.219396800212 487.611600017523 1072.20865826816 969.720251942745 909.399197597157 644.041108709178 369.232186065348 369.179858250255 320.479543053102 463.900736976858 562.86252310435 510.99231966826 450.935879335757 764.961695756089 357.368169069461 741.990159103517 564.309240558459 318.899283011216 364.25880722166 344.188366376426 323.936736819837 337.317350667571 521.280698813523 479.003069654287 740.831535430447 1167.55554845253 1002.84981333289 871.012572738156 867.091847746141 573.778451895203 513.35239713145 508.945170071363 503.29314450506 387.14972231308 699.115035657461 269.67482503296 399.568707826294 476.651096999794 546.413158343304 312.616717389168 730.563066226661 672.541200902935 526.127554441493 692.020751944618 491.513574910316 203.584353571451 135.59474002922 69.582395918387 55.7463819538291 104.89724060353 184.685281170686 292.12576769038 177.071771392 484.243855453493 410.290808193253 391.753143569302 256.793379793138 300.428265608554 219.118123045843 270.183206583312 458.586713524092 319.638140164573 155 155 155 155 157.543403481202 181.40094599854 158 267.815740373376 206.878973260675 297.361365821504 368.837248821291 364.307217209679 427.392656207754 453.736688871245 447.827899677856 399.0148885149 396.730592496995 512.245368193113 516.047736798819 497.959637708966 480.596622565405 472.942674010774 456.547433144298 482.038727164461 515.908284345882 469.687359726076 366.649864751481 436.112148301169 368.897261824308 300.80708633166 280.369940195213 292.115122714224 253.767629915005 279.495916806985 292.5271536052 262.010756890759 238.412597501098 239.163049367697 203.13402983698 177.616825379085 217.084440725066 179.961865961693 193.360008303202 198.506251333858 174.51997472461 183.370440470347 128.972924787763 135.798726125746 155.090358110894 179.71681392033 118.870663759364 123.553621820747 172.505391887387 184.387235077121 257.185216305314 295.723074812681 302.036934317574 361.628337407678 331.056615399954 297.484010852663 418.425568024333 365.382511554931 208.157741684794 353.443936356905 -3.4e+38 -3.4e+38 286.292213024495 275.121613471727 180.38726476875 153.568744633537 70.4446853669042 -3.4e+38 30.2960998436774 15.3844354888829 210.068206595942 -3.4e+38 -3.4e+38 -3.4e+38 -3.4e+38 -3.4e+38 -3.4e+38 -3.4e+38 -3.4e+38 -3.4e+38 -3.4e+38 -3.4e+38 -3.4e+38 -3.4e+38 -3.4e+38 -3.4e+38 -3.4e+38 -3.4e+38 -3.4e+38 -3.4e+38 -3.4e+38 -3.4e+38 -3.4e+38 30.1237437590666 65.8794119014023 153.233514735694
188.525804262374 801.24968607095 540.850918323859 288.226548621165 472.866189271326 185.199092777917 374.391217916968 146.202348879004 379.806842533419 645.360008591369 559.680366554655 232.76466051682 102.355937673384 343.540712389853 602.038239729262 432.01206104845 476.641164047318 868.899831563478 737.360385845352 487.804214906909 783.32825307645 647.159141735303 853.083125926268 590.178998245068 250.358809376265 559.473634981438 616.701926907909 543.158337999646 1211.63938821833 729.38134581375 876.584350252136 850.619298626099 869.224467166577 735.224062608652 773.196829832926 954.660812223094 902.991471224186 896.425027428459 1178.08592164701 645.319547600067 752.060411514284 1331.61306953174 1458.20883817545 1235.74011092724 1399.13853622915 1233.22738459781 1578.7981015271 571.807516377247 1032.57255338632 1180.10220164103 1255.25997422405 834.991675351523 809.518458820199 300.282487215533 303.193757037017 127.228519372348 47.5801294488546 714.908827628388 379.738864274724 112.323309934153 257.809546359359 281.407767067005 196.685185375119 297.285437652282 152 152 155 509.207649217551 331.597491360793 155 189.129226522324 243.046001186805 183.189556312828 190.054839777016 243.373824738607 328.092154125227 356.087448911332 347.75094631475 404.920797561632 429.98386586711 450.449681769494 427.342991491634 389.514513130314 399.514614429674 430.087883540677 419.92816142541 428.184524384767 508.650871442637 488.942372763336 484.296141440178 448.483433102 474.17752670504 441.427171047504 393.732682778104 355.024826706227 334.029506627689 325.090194013095 246.751204597443 304.999470458132 297.611187688678 262.082125693635 248.772221444542 184.962583932645 233.170750182146 237.2412810772 224.30794011897 220.047196232037 257.671573265839 171.692023744206 223.709872535651 179.807278894647 187.987255790118 208.899533057715 154.525252575322 184.573072338205 137.594258231429 153.018003823279 131.004924587626 134.018176444968 163.952253820799 174.872382829263 197.184953012034 220.643306150843 261.362099120953 271.261458169662 345.744524839389 242.781071117022 265.104860627513 334.435061737813 322.695419722663 394.806108800673 314.195805471303 278.394184599554 53.2727691004134 102.595969239037 34.7238566104781 -3.4e+38 -3.4e+38 90.8830921744728 84.292783456209 5.93719357709766 205.443732641555 -3.4e+38 -3.4e+38 -3.4e+38 -3.4e+38 -3.4e+38 -3.4e+38 -3.4e+38 -3.4e+38 -3.4e+38 -3.4e+38 -3.4e+38 -3.4e+38 -3.4e+38 43.1605717818424 30.1161655219944 25.2922422707817 1 1 12.8921919909714 36.9084706250504 28.9964242273408 75.7943444032538 85.268296244897 153.702412098119
96.6509570958355 59.4113378052007 113.927158345844 281.529801057474 277.024040322265 143.365303582682 175.277273121472 216.189771157691 169.141875545284 138.934610827444 90 105.455664246615 152.183731357587 210.413539424362 131.531166726229 149.649410521366 510.556580220699 431.423374518131 690.669242785934 580.45713455663 803.869610245186 907.615845154788 1232.25784485847 1301.49214829877 1527.08997340387 979.210933146472 1549.05197761552 472.748772584178 496.994424660698 1077.7810700771 1556.55386017363 1277.64223589292 1553.03681981704 1317.4020185375 1347.16681971328 1086.7118682764 1156.64678704477 1277.42801794267 1293.97360990756 1623.25804727665 1335.47454467268 1507.2876222679 1545.5601633024 1223.50946105194 1523.23541750876 1982.2375490237 1206.72928504529 1807.36538543179 2020.9658680278 1051.55198709353 1177.16503596535 1398.48541407049 1763.93884995394 1057.11822706911 1077.03046535898 879.911354070445 410.616916584638 189.210657540311 256.878223479922 156.237566655553 122.905172060462 322.046160266735 263.622035234166 236.277500559812 252.370915819289 271.815047948714 219.98384821548 173.495851989652 329.629237755603 387.118100128077 555.142033248289 621.649887001666 401.771821045119 183.217819200801 200 249.715760029295 299 328.992312271764 348.324827903017 418.942690275277 422.398093812189 446.202848183918 433.013274981444 418.265322874468 418.63957991978 414.070919346442 453.671407995494 473.811459313556 449.189042217208 432.029397978958 447.178032189001 429.622844765844 402.882790806651 365.679554597951 354.281831292455 400.140401546241 386.092388549804 329.716097906191 333.590707917209 341.634438296134 235.691056166315 243.48284327307 319.4719045321 250.582450122462 263.288437002051 211.105049564429 138.289206311487 232.751496339201 255.856943799693 106.474321276282 109.285170242992 155.860978209111 116.205830138706 156.890465620994 71 119.711881761709 98.1832875071991 129.357516743273 144.299667120004 162.999213843006 120.617625681318 122.882900872197 116.369819378091 142.04056959144 167.308715987437 188.157462239192 212.534344626448 188.082378078316 197.308438091292 171.758911056279 256.518369527344 273.637635178612 237.535416478643 165.804671502742 116.219328137924 -3.4e+38 -3.4e+38 2 60.005592960121 78.9645537825795 93.4099659074863 309.139111305123 443.269666047316 419.771879450836 308.368199531137 -3.4e+38 -3.4e+38 -3.4e+38 -3.4e+38 -3.4e+38 -3.4e+38 -3.4e+38 -3.4e+38 -3.4e+38 155.397372032122 235.88006249048 171.299185642747 133.357450227111 76.577582321329 57.959076392895 -3.4e+38 63.7494359205379 80.3427551431965 135.647881217109 155.945684276559 182.768486539363
153.419329173158 284.915406612157 196.310436196223 389.446133137408 324.065993298839 387.593493672589 604.439448412612 298.513064597096 193.903779705032 156.972612316916 194.856659209265 207.55207539312 238.865496048021 284.204212085081 312.629752008374 348.690301709726 295.410404622585 291.440956059199 344.202617880714 526.897268118565 616.034504146194 950.18822722058 1523.82545711648 1075.83835707723 1112.93998153321 1255.76899074392 474.66447034856 697.678358074734 718.961026707193 769.711177111675 601.267132732064 752.258773328923 1501.62836891979 1279.67611407232 1171.98440864212 1049.64730334125 1249.71062941548 1090.94919827702 1599.40649759097 1323.88873645333 943.5845940922 762.210256246703 1033.03415826077 1221.6145377492 1420.47821361806 1596.10465371419 1868.85716599665 1424.79499961414 1489.80602142773 1517.91843855237 1025.73930208875 1842.73767595541 1663.82264453088 938.728193531538 1079.09809168806 861.381141277437 1010.20383987346 724.695798203452 570.914789911037 202.012489335662 147.720030256399 544.732115159281 649.448206864357 396.510329069115 305.470192501491 342.467983933463 231.982824183157 261.81145893646 327.234834984048 399.166549667551 442.738612354315 375.44705634042 361.801298663758 406.078813635354 315.615159235435 216.669788389794 267.405427177915 298.515932485234 300.575515591738 264.936062718221 324.979776345526 390.963113575061 389.520395526618 410.972757579137 408.126681098954 458.415497058841 459.300079164072 440.209863288757 479.627394157406 449.177358167745 429.390081910355 400.31451435773 411.159451620784 397.921973071646 389.163689847107 391.445542051572 365.26051155967 377.356131559614 371.913651860673 311.08286372978 312.498333438883 264.352968381477 159.319032713801 187.803945942169 116.116949495225 141.378179862755 193.424103578112 199.679796598805 218.643982336369 196.044836653781 130.885396467391 119.723071441577 145.018482371007 176.380073409525 140.820577940895 137.55284724654 82.736163358465 21.9381537531448 10 10 46.0046712917995 49.2832614626621 81.6871272065656 82.7211792333158 76.2000774121992 93.4782513948653 86.9376191178159 155.055328772317 94.1715239591533 50.0770025561888 24.4760027086418 98.6135046631431 114.157552732351 70.3837643745277 -3.4e+38 -3.4e+38 -3.4e+38 8.80036900544907 61.8538213184176 45.3645898872821 98.045027358485 214.411619761137 202.378922637108 131.396746136335 43.9869107384817 105.05737795233 46.9450062698362 -3.4e+38 -3.4e+38 -3.4e+38 -3.4e+38 -3.4e+38 -3.4e+38 -3.4e+38 -3.4e+38 -3.4e+38 115.490323087261 -3.4e+38 -3.4e+38 -3.4e+38 -3.4e+38 -3.4e+38 -3.4e+38 -3.4e+38 150.668512882554 198.743027429505
205.194005185942 348.585427068699 657.113077021419 249.927494309884 302.796385458257 210.491862236526 229.739604458251 234.924667811563 464.178131629715 585.570845745448 853.651233878519 1247.47386693444 924.883261103657 1167.05889524184 1077.52739892732 2247.32885349451 1104.00276372109 970.082023014061 730.966852489265 1043.75808396479 494.919222782049 456.260649032001 733.697706746545 970.207826287421 792.971986007002 891.217005841003 935.243686298033 972.131008734194 1206.45323610204 778.802484097326 498.613358818504 426.085169029846 832.937807811097 741.841745962581 605.952668847018 1035.79157529389 1324.58001303856 1284.75561678202 742.117039892164 998.597360539605 1373.89404581632 1423.22286827618 695.410797341942 715.696001128417 1317.82931826226 1194.26857120273 1287.04644754332 1091.66449375076 1418.75257761305 1631.02224284244 1761.78750338985 1833.82947149586 1115.42754190427 1638.95605847289 1429.50816916909 1203.41871545088 1224.01132878825 702.42871687022 826.767085517353 678.640614154549 371.854813389317 454.901139589391 460.429960993739 677.252646767608 261.020500165395 317.354169462001 323.995480928181 474.945104157253 287.884525106688 303.69103470868 383.110863916918 588.995717708257 502.8174943476 302.568407342873 297.21840067613 243.400260160906 219.117639981277 233.096102525795 251.083326474643 320.468158646668 352.105968129972 376.480734947648 352.240341467991 377.299049092316 397.093224276165 454.197245315148 413.454712662979 417.207909648611 415.014844318972 416 409.858960368802 417.605926859306 411.824591599998 403.10513400497 410.280593967173 373.576586545568 382.215131589553 377.188758440897 358.604557485643 335.723186787545 289.834579586077 260.387223026589 308.706685754016 354.975886583447 275.057785745462 211.289771585001 331.7089615193 244.063512365211 221.087509161687 234.071761692844 189.46810774758 164.955022645838 174.821050218166 144.484866247679 150.3655594251 105.599582878216 107.116443144034 131.321350051037 58.4818595590124 73.1018064808103 91.1881872606147 89.090093957494 60.5040921953561 52.4213009513039 35.9227911657637 1.43118566662308 10.8478498272078 59.8384082562297 62.9444603759107 24.4934296690487 -3.4e+38 -3.4e+38 -3.4e+38 -3.4e+38 -3.4e+38 -3.4e+38 28.6722423245421 8.81485010150051 2.75073448654881 67.4564872831021 68.8780785671734 40.3778849767386 -3.4e+38 -3.4e+38 -3.4e+38 9.13038145279733 62.1292894288697 68.2944997135583 59.807935851824 25.9826954619393 -3.4e+38 -3.4e+38 -3.4e+38 -3.4e+38 -3.4e+38 -3.4e+38 -3.4e+38 -3.4e+38 -3.4e+38 -3.4e+38 -3.4e+38 -3.4e+38 -3.4e+38 -3.4e+38 48.8639646659145 -3.4e+38
368.607350133781 225.065312339473 174.005553962564 338.513533247807 328.78774593956 498.975714417291 611.554706224793 899.10976058333 1430.5920261834 1926.24853923024 892.000061207603 685.110084754705 1309.72392092425 1035.58742679926 856.349485387782 1514.54938020176 1046.69783210491 1215.76472566534 1139.2931714938 1855.73610682246 1741.61447138896 1617.14519039482 1559.19134215947 796.621640926252 521.077678310452 707.095405486392 618.554525498489 830.132921951391 668.860598453841 667.44659689826 761.363192494412 429.162899135308 512.428787257817 464.990052605819 907.939755376482 957.900236862935 1054.31078732914 785.846637569705 1229.96312613 1333.29907770134 1278.10926144103 738.743292987795 884.342983638751 1288.28153796034 1117.23228267939 1311.42654152333 1126.75191406678 947.134241962726 1412.56117175678 1346.87351945673 1485.67830800577 1411.19066263141 1556.8988107822 1362.44069016391 1920.16942866314 1870.80047824859 1282.06085365748 1174.00572099488 1169.03529695067 1021.24484919391 615.245198129942 606.410063733241 207.191328451326 541.248232982232 439.010373213478 366.902235133883 311.917359159856 319.607914786126 360.001674821106 422.243226511209 312.288565721611 277.192255152593 275.866492543869 277.751875818631 256 272.112429877786 181.884569221616 184.91373301007 195.512828047364 252.633774085584 293.112898494319 312.332826362553 328.974105354048 351.590478439439 402.383360870413 420.444560643396 431.231939808502 417.808173084137 388.699338212805 417.912251226489 423.956175862717 378.152455822119 371.062934916789 400.727033049663 353.555952306492 379.302036868722 376.411964413951 367.270930149673 354.548522717032 341.878519163688 226.08903495475 315.444024409057 338.647145092888 303.650068468891 276.8030406101 282.968800773634 234.251303220893 234 271.183980050165 304.15505516977 310.145972918815 296.791259252751 276.139234086936 190.129549289953 146.41568306325 113.319221457528 148.284608128891 160.947115130266 133.237586432439 113.553990764821 109.703406597067 128.345107207466 93.3581743789682 88.6869981973466 50.8162973715354 46.5964921811175 121.847443959684 119.411234059728 30.0972847577309 -3.4e+38 -3.4e+38 -3.4e+38 -3.4e+38 -3.4e+38 -3.4e+38 -3.4e+38 -3.4e+38 -3.4e+38 -3.4e+38 65.0563490201475 4.53491668402392 -3.4e+38 -3.4e+38 -3.4e+38 -3.4e+38 -3.4e+38 -3.4e+38 -3.4e+38 -3.4e+38 -3.4e+38 -3.4e+38 -3.4e+38 -3.4e+38 8.4462524098257 159.549566021944 -3.4e+38 -3.4e+38 -3.4e+38 -3.4e+38 -3.4e+38 -3.4e+38 -3.4e+38 -3.4e+38 -3.4e+38 -3.4e+38 -3.4e+38
135.463716224224 181.99239781912 301.596134390315 475.973943951949 1019.23796081411 1184.35595708391 1563.83561176348 1783.28724012333 567.209394898736 325.98387781131 309.02143380641 1093.51359522444 569.792067835174 1205.76284644382 776.393886055475 833.628217010397 832.253638979697 835.414902612168 879.148833060652 784.793763612724 740.040368199973 1197.67483238749 753.004658289267 996.230092122661 1074.10237135052 676.436546894947 530 609.072649366773 578.705840141646 684.602240687502 908.200483744197 1204.25342199181 1206.7554311694 892.935797194677 761.625907786521 584.26097948866 763.062886110461 856.835504309136 599.975451727934 593.216621610442 581.764820709979 1415.10380748654 1059.93831168471 1231.29600298511 1717.6673492072 951.7185572636 814.724448873032 1018.78473307209 1117.30074721913 1458.52330671643 1423.40803834763 1137.62252887103 1032.69993121276 1719.00542788126 1716.8075530162 1979.85640738142 950.030888094244 1545.02803598301 1440.56386838242 1157.86531337698 1098.42323987166 614.774230482472 679.923867269882 164.450546706576 291.32090760435 571.455486142514 230.120127580672 229.140337243989 206.312212376222 201.491986262287 245.46292361529 245.330207150445 267.978044002405 280 291.090421194392 298.688482951701 255.636250925265 222.185257824871 162.136073800227 182.113968456123 238.507396218083 216.638639109502 270.465882420514 269 324.560243667358 344.079027056204 387.773738971012 156 187.578859928408 156 327.471731633256 166 335.094747256364 419.333233170636 421.205398134345 400.650522973568 356 371.346386635986 398.775252792568 341.078597142088 278.408107983527 333.281833020778 419.78323405171 313.318088294244 297.669127361071 271.448665384346 245.827216114388 233 278.596345832333 291.873540340109 281.464108322041 297.59087048276 217.841322313234 152 148 157.677265394638 161.667438352028 139.690471243042 92.5661407791909 104.887453052955 119.577624164836 99.3449096998607 89.0626286706415 69.8412358323112 29.5628695483999 -3.4e+38 -3.4e+38 -3.4e+38 -3.4e+38 -3.4e+38 -3.4e+38 -3.4e+38 -3.4e+38 -3.4e+38 -3.4e+38 -3.4e+38 -3.4e+38 -3.4e+38 -3.4e+38 -3.4e+38 -3.4e+38 -3.4e+38 -3.4e+38 21.5581273021988 74.476637487546 51.7129734885746 -3.4e+38 -3.4e+38 -3.4e+38 -3.4e+38 -3.4e+38 -3.4e+38 -3.4e+38 -3.4e+38 -3.4e+38 -3.4e+38 -3.4e+38 -3.4e+38 -3.4e+38 -3.4e+38 -3.4e+38 -3.4e+38 -3.4e+38 -3.4e+38 -3.4e+38 -3.4e+38
314.244535815401 1128.59780510399 1405.69221436567 1040.58090508087 1249.15066447361 1048.33268862033 77.0614067990952 377.30968761261 343.488124865517 116.808705736366 629.880429397097 591.915188966783 1346.96980167929 1572.28536318933 1392.83528745409 1266.98512320783 766.658689729689 669.330074900399 569.666149425393 566.652996941088 880.766854534628 2859.66788767869 1071.59138198669 1458.38064986323 1559.04280246206 2389.40598224315 1062.63209174119 1002.26306070139 820.007597707792 648.089688784398 615.032541970439 854.055101046026 914.996464912531 1152.13615350364 1340.7070652583 1240.90573812155 976.352260310982 660.395519732849 1151.97446191667 1035.32352557808 1406.9195065027 1470.56681467342 998.713457183878 1136.34554356401 988.312678195806 1159.16639857515 939.3050200668 1068.63467455078 1227.7802404888 1198.17127821923 1504.32514101389 1525.92052672106 1453.71230248981 1806.96413171822 1579.0717560926 1991.40858577445 1740.26713542035 1590.94328727841 1600.69172535359 1332.10954031904 767.604821766515 734.528635519956 684.841415159708 173.155915645277 200.921252220974 248.275394167604 220.647709409211 300.78801740685 463.914326051954 742.089089127083 721.264322194395 705.301842042351 668.581331600845 333.817040191401 200.668069386234 237.861810093542 226.857711353636 231.315095580854 223.307148087948 163 163 163 181.142028324071 197.880366632192 212.231483405558 246.332147481901 167.769415991065 160.210210975955 230.163425435441 342.110974158489 365.982639827698 382.570950751894 388.459415763046 422.708793958207 363.950951719208 401.242213014642 394.808075292426 392.017123648824 360.418981589961 354.743663357901 353.430073582303 307.963689274359 317.626974517711 303 288.005999144026 274 262 270.108943608217 272.47593493227 258.283846202105 256.632189850476 250.352729468086 235.63576286521 177.708110839669 166.126919971584 180.592603314434 130.530620820679 158.860990495581 116.21496859393 72.2547500600558 56.1744557858662 86.2011465640189 44.4191035499746 29.6044751627395 -3.4e+38 -3.4e+38 -3.4e+38 -3.4e+38 -3.4e+38 -3.4e+38 -3.4e+38 -3.4e+38 -3.4e+38 -3.4e+38 -3.4e+38 -3.4e+38 -3.4e+38 -3.4e+38 -3.4e+38 -3.4e+38 -3.4e+38 -3.4e+38 -3.4e+38 10.7829188325245 -3.4e+38 -3.4e+38 -3.4e+38 -3.4e+38 -3.4e+38 -3.4e+38 77.5294632808566 -3.4e+38 -3.4e+38 -3.4e+38 171.823031666748 329.937807415036 427.51759809804 419.531291831514 234.626279286099 403.300424866334 -3.4e+38 96.4793415612444 353.335766879652 319.191909338797 -3.4e+38 -3.4e+38
430.805905756725 1880.0207291046 1784.2834474 1056.56998534576 589.938465224841 1442.0578397911 761.277608856033 713.603278144149 34.6157974064067 24.2729184320699 445.860163309233 608.714672529034 316.73257445026 1307.62548075047 890.912397791397 1503.54056949003 1265.60998621917 1321.39689676092 537.321087324455 773.788652128358 394.198586265988 893.688921514659 1418.73678636117 3566.84448499307 2473.4975217322 1764.85619209726 1147.5832401193 1191.69285333169 1145.15541843141 1083.97587199143 1126.63792603442 1032.71439597274 1213.39017991711 1294.74028140206 1245.43149271348 1092.69983386219 1362.81423989165 1180.4611424483 780.52541871876 717.970984327885 1028.13696561446 1117.74531269047 1518.2904511024 1827.00971534042 1553.30384128189 1508.27782976862 781.827277435963 823.001288987396 1064.72743786214 1439.51446445901 944.932309187697 1480.45881922273 1029.23592501924 1049.84162478761 1082.17115763941 1671.90913784485 789.947645281428 1209.45012392984 870.580306559023 1441.80237093876 1381.96423405769 686.630994568609 475.713511406341 957.854809064842 331.958686627429 588.429272479301 175.536287350266 151.918649163629 153.678567943298 224.392008008925 223.628915319311 250.263434687892 244.961114964337 199.342854286006 174.174321457627 199.114210375071 226.803783442429 226.126310426741 205.431769249388 156 156 156 160 160 160.698669597653 162.645671587191 241.883004453807 279.146933832567 333.115717150047 368.687609172468 331.419579908174 343.864882965029 374.32525191504 407.572045616364 394.435296075802 388.869254945382 399.438405729089 429.056554695721 414.129553847169 411.2083527373 396.709329299375 408.869096067899 393.220211623363 319.854539094954 380.140353658633 307 354.445201627182 299.001547431249 304.273194283645 331.276927311761 313.467211275002 290.627469215928 296.367375923693 246.026180235877 183 238.932877696419 176.815795635213 91.336271964342 66.1597991907248 44.4197536786053 65.2499787390567 61.0224501592845 25.383738392492 -3.4e+38 -3.4e+38 -3.4e+38 -3.4e+38 -3.4e+38 -3.4e+38 -3.4e+38 -3.4e+38 -3.4e+38 -3.4e+38 -3.4e+38 -3.4e+38 -3.4e+38 -3.4e+38 -3.4e+38 -3.4e+38 -3.4e+38 -3.4e+38 -3.4e+38 -3.4e+38 -3.4e+38 -3.4e+38 -3.4e+38 -3.4e+38 -3.4e+38 -3.4e+38 -3.4e+38 36.3770562513575 -3.4e+38 -3.4e+38 -3.4e+38 24.725371591297 65.3567824828752 197.21422769836 245.46503234986 350.862479191993 297.252150623347 476.014651217409 322.488256555553 491.513090462765 622.434918715596 553.865082323369 141.612268930418
254.668146057747 1316.34334263883 520.016717898677 1459.22427578451 1128.10451554684 1051.52678184714 594.128119666973 105.933761299122 1 -3.4e+38 73.7807525385427 871.974344499857 1306.69709239419 2416.48429707206 -3.4e+38 2185.04146030939 840.220684793903 1500.98687044607 762.896497163967 674.83217675499 1612.13912738993 1157.4306304458 1475.87104996518 840.683980325387 1000.62333990672 1766.12627061237 2181.71134132837 2482.44678768519 3092.14239819804 1847.51971419983 2279.884869698 1369.62787401509 766.833130657492 1992.7769107884 1744.29715927795 1778.60800931131 1281.30612701502 949.415965552368 1029.12066784428 721.24042020866 1099.99625238823 972.866362647024 1671.92163126635 884.534476808476 1686.36974187445 1329.92042729777 1406.00247676863 1420.90562314064 1194.74684287885 1336.70983661132 1312.75965975978 753.167294604076 1716.30683640504 802.908806282666 1622.16425495621 1024.53830607397 1301.03024062923 793.512757343301 1279.81445850543 763.891683953786 664.487958127408 1067.35837529017 246.090740026826 461.529157408271 213.730776733558 298.454680529405 267.460121985732 287.068278655585 272.129706201242 235.264784002016 158.808022406443 154.119602852309 152.622910585293 178.241215658929 158.350268166795 163.967094050053 158.89927698064 158 156 156 156 156 160 156.622653834437 156.124044133998 205.462774520538 241.968918613036 277.170474295812 331.957953142383 348.065282286654 367.218137456947 408.830024723481 424.893553227578 428.526588454461 439.623413193649 428.16202636477 428.731230643811 409.611868994549 398.695283986732 408.344493788525 371.226390912975 379.511842920968 339.615321317877 357.68985498604 360.38697049476 354.701251127162 318.218629706119 356.289083502205 319.938468102811 312.519253276695 294.242158148931 291.850268746661 267.765800593857 207.689913709475 200.207263947096 183.133332553856 237.100342482441 182.388671842908 103.138404894656 87.6314073170141 45.208148635162 15.6998856479938 -3.4e+38 -3.4e+38 -3.4e+38 -3.4e+38 -3.4e+38 -3.4e+38 -3.4e+38 -3.4e+38 -3.4e+38 -3.4e+38 -3.4e+38 -3.4e+38 -3.4e+38 -3.4e+38 -3.4e+38 -3.4e+38 -3.4e+38 -3.4e+38 -3.4e+38 -3.4e+38 -3.4e+38 -3.4e+38 -3.4e+38 -3.4e+38 -3.4e+38 -3.4e+38 -3.4e+38 -3.4e+38 -3.4e+38 -3.4e+38 -3.4e+38 -3.4e+38 5.16218440200928 140.562981957809 239.204858681644 241.980363982022 244.233835940031 242.5889279685 340.874566422126 465.78057926291 509.147275664972 531.882686973445 521.850186136302 398.0075629148
722.945271766493 663.517497094098 1414.66537501483 841.788307704255 1710.62282125436 26.9315869108852 41.2123965122853 59.7168047284711 46.6019600237616 66.8975328943354 881.79622772371 348.36534826758 523.065722605123 50.1154569794643 -3.4e+38 -3.4e+38 -3.4e+38 307.577457376011 799.526792307651 1140.58456929832 976.168378817646 726.522164877085 1539.30731405708 1688.9351219152 769.434605118795 1125.09387151707 1954.51946236994 2526.14747440436 1989.17319182535 2212.50899821008 2594.22347052151 1951.17739887565 1261.95107906282 861.584946551908 1170.36729467923 753.438506652313 1006.84593550722 706.608047698228 887.803136484084 1429.46347269604 1595.14971428833 892.485331454532 832.244527945736 1150.61666736888 1247.19451207909 1040.14872139584 1055.10569652397 1184.72346489154 1135.30725302393 844.977975811407 1098.98717698246 736.58962290513 1049.16893288231 1514.99250977227 935.158216807562 1022.05278595152 1313.31263620149 895.747717088234 1021.76577937145 1080.0309613425 1006.47152943369 1420.12287041079 454.166602238375 227.160184865305 630.630915323115 676.28764189578 560.06832898685 495.386376127641 519.789592629701 460.529838367523 345.924776192515 339.825743488937 341.568647088082 319.254470415541 263.275612774892 256.726152017639 263.592123471925 190.449723830952 172.059377257878 185.11062532406 226.638516911203 215.798782918505 182.078756969691 160.636237801395 166.95965577344 171.745886082635 230.961720074305 280.277283375863 318.072589674958 317.238989252549 389.021774614238 398.846224231875 451.459566266656 434.202748938991 461.090374776136 460.085971327372 463.001279369367 439.169162562278 415.365986827935 428.62827199855 380.804182664855 374.483583410353 387.190335347221 372.599102925429 348 360.925207391319 318.927078047761 331.144983270254 376.911986222434 355.637345078028 375.282202157737 275 261.751679180026 254.813500197593 215.17349543117 215.532053861573 192.13348461472 159.884712354422 121.925011807327 76.8917031410217 35.6483865748812 -3.4e+38 -3.4e+38 -3.4e+38 -3.4e+38 -3.4e+38 -3.4e+38 -3.4e+38 -3.4e+38 -3.4e+38 -3.4e+38 -3.4e+38 -3.4e+38 -3.4e+38 -3.4e+38 -3.4e+38 -3.4e+38 -3.4e+38 -3.4e+38 -3.4e+38 -3.4e+38 -3.4e+38 -3.4e+38 -3.4e+38 -3.4e+38 -3.4e+38 -3.4e+38 -3.4e+38 -3.4e+38 -3.4e+38 -3.4e+38 -3.4e+38 -3.4e+38 -3.4e+38 -3.4e+38 38.0861653050746 116.617253202374 174.531504099562 218.068348184033 264.339479378216 265.660973063837 355.224156469522 387.879417202886 453.899441149328 428.134056384217 420.823600482905
222.325514788822 77 1322.3529914682 607.703199439826 72.0802317397919 -3.4e+38 -3.4e+38 84.9143057639807 323.08927120092 1072.71461092901 570.151089048841 922.388531693253 1426.39953167965 -3.4e+38 276.600584155295 -3.4e+38 -3.4e+38 -3.4e+38 -3.4e+38 -3.4e+38 -3.4e+38 178.131337446291 303.110885100684 192.145325923739 414.376694653725 1223.54209840816 1338.18279702625 1357.76809927221 1750.92168911641 1403.128556181 2380.51408587582 1286.61640643485 1572.428157672 1348.63422892577 1661.73233693144 800.939151778388 1601.86035894104 1176.14653856165 1555.89707612183 1585.49066830479 759.369842194626 716.299968177418 1214.06846573943 1133.92956352494 1128.08640818484 1177.92817103503 1109.86923106811 1283.42090316401 1634.2974171671 1150.20459583602 805.018851809976 663.263920550233 972.895636260764 668.745874617385 885.898409467802 1159.42659100293 894.314075306236 850.956622050765 1008.7757515952 525.539265918674 757.142739266636 577.581880635641 381.981295280371 317.986973219551 365.462868903739 461.015152668119 485.600124330191 684.335383564217 624.493543228148 703.775348902244 424.984489796095 526.539465841292 507.297009392227 440.22797952653 564.323506269825 799.82693666866 286.512027501582 287.439154103106 266 266 274 284.677409204075 257.020153621045 214.300853612854 171.009089302495 177.156697681097 197.238348511769 235.417808608816 283.291266244725 336.616718849064 341.302930007511 471.09941577886 498.45979719465 420.354525540531 485.803730659903 502.48295046429 516.96943056621 473.575254271954 458.467733221339 461.245443441485 411.907401236238 408.746636643215 489.578716922041 396.679086682443 356.967699612356 331 391.907154750312 395 331.305006867244 294.559283898228 279.3201853931 297.214248032109 298.077448866095 277.704826979778 221.185059303454 168.520818629006 197.676433041056 147.962050718884 102.694045980604 63.2941437938795 2.07463273585832 -3.4e+38 -3.4e+38 -3.4e+38 -3.4e+38 -3.4e+38 -3.4e+38 -3.4e+38 -3.4e+38 -3.4e+38 -3.4e+38 -3.4e+38 -3.4e+38 -3.4e+38 -3.4e+38 -3.4e+38 -3.4e+38 -3.4e+38 -3.4e+38 -3.4e+38 -3.4e+38 -3.4e+38 -3.4e+38 -3.4e+38 -3.4e+38 -3.4e+38 -3.4e+38 -3.4e+38 -3.4e+38 -3.4e+38 -3.4e+38 -3.4e+38 -3.4e+38 -3.4e+38 -3.4e+38 28.4464374069882 55.7699978308124 131.866792284032 163.809722635505 152.212823013502 243.244502386842 236.544733531314 212.731031136762 291.22144342294 248.614761312969 277.676728034864
14.357209372538 14 518.040120118588 181.122451147116 -3.4e+38 -3.4e+38 72.9596783264756 400.091175418079 601.454529678403 457.965745731373 1 -3.4e+38 -3.4e+38 -3.4e+38 -3.4e+38 -3.4e+38 -3.4e+38 -3.4e+38 -3.4e+38 -3.4e+38 -3.4e+38 -3.4e+38 -3.4e+38 -3.4e+38 -3.4e+38 -3.4e+38 -3.4e+38 -3.4e+38 124.30313221849 25.5865982118601 -3.4e+38 896.791876311218 550.554539875956 949.243944244644 1148.76073180197 416.463976940654 1830.09455261333 1373.39486377381 754.698457119452 1446.20678176666 887.783210641656 744.563871574528 723.657359855859 1634.71636073649 917.727497123525 714.420635256237 1186.23442547233 1335.29355979548 1266.63555088386 1419.37549400086 1073.1934478318 825.216967832 968.554857463088 785.101044729556 976.669661329215 695.156762637394 830.811122924602 1190.22624473065 1256.53901633407 973.685057250871 594.653808599544 422.22848366112 406.238183802035 470.887980179752 516.786361372272 494.801392325136 453.529297832287 457.935298613259 490.132007116629 463.643142032441 563.177083519648 565.932505058869 565 735.564027357427 641.737418747051 323.604362784311 316.539474432271 347.393454069882 356.992098492709 406.779317048211 378.972372678659 319.393525602902 315.194126106859 276.062361081027 258.780422643731 251.199590925902 211.38585844813 241.40424529052 296.850012298521 333.54495196511 403.786079801584 351.357192354384 343.694998641625 411.256875122992 428.3140045407 428.152491887767 436.943381055052 478.782102863038 450.129217022607 472.941688523199 438.372147352176 397.43434881863 422.692222262779 438.011167171865 411.843470563582 382.542373106284 425.024034066814 351.746521960863 338.403112228917 310.997918687026 306.400698333825 307.293839530681 301 310.370458125501 272.858279391408 239.572138897972 192.965418597686 175.168784964045 119.561099124173 59.4576970844776 -3.4e+38 -3.4e+38 -3.4e+38 -3.4e+38 -3.4e+38 -3.4e+38 -3.4e+38 -3.4e+38 -3.4e+38 -3.4e+38 -3.4e+38 -3.4e+38 -3.4e+38 -3.4e+38 -3.4e+38 -3.4e+38 -3.4e+38 -3.4e+38 -3.4e+38 -3.4e+38 -3.4e+38 -3.4e+38 -3.4e+38 -3.4e+38 -3.4e+38 -3.4e+38 -3.4e+38 -3.4e+38 -3.4e+38 -3.4e+38 -3.4e+38 -3.4e+38 -3.4e+38 -3.4e+38 -3.4e+38 36.2797496244483 115.436935432173 114.994287908899 155.477553885401 139.756177174193 138.111632348299 176.096768991462 192.459198858872 238.258465740691 188.280876126462 269.543050519375
479.698640995339 505.562524098526 -3.4e+38 -3.4e+38 -3.4e+38 -3.4e+38 292.309718317109 418.16910198523 -3.4e+38 -3.4e+38 -3.4e+38 -3.4e+38 -3.4e+38 -3.4e+38 -3.4e+38 -3.4e+38 -3.4e+38 -3.4e+38 -3.4e+38 -3.4e+38 -3.4e+38 -3.4e+38 -3.4e+38 -3.4e+38 -3.4e+38 -3.4e+38 -3.4e+38 -3.4e+38 -3.4e+38 -3.4e+38 -3.4e+38 -3.4e+38 15.4334036859688 222.438869920733 1825.7863973392 1016.90836729312 1150.08366472693 969.454126124959 103.753278141115 176.662586921176 1546.68226595967 987.640671126821 1234.09425041974 967.339413140022 922.876876905989 826.214634802793 874.822734674837 1480.73453142756 1254.68693231783 1249.12511597656 1359.69873815594 1140.00925397943 1601.3288849255 1117.86519704584 672.233372453045 922.160429154442 1209.12774816766 1449.506631268 996.053421916452 586.114893397017 575.970615870281 513.8104880265 443.388336538514 346.888110509195 431.601978420703 461.366492442611 595.535975169669 651.489373745147 649.188694048725 441.29111757842 568.532092683899 555.500325752729 594.015792256314 397.268877084906 347.144861400945 358.376879123605 434.657273376902 819.05350199602 889.739492317967 857.275421397374 757.17093146556 840.00297226032 305.724341310684 292.860306558193 256.932401079228 258.609316539897 243.140173561454 221.350815746146 294.773512620584 291.703277417368 233 233 233 233 237.339899605412 240.985406855082 232.183943446964 239.631757199884 233.439819849401 256 350.560174966144 349.03681643786 402.806632128626 415.055174502374 439.228179129333 433.347656490356 387.267548887829 397.786917031491 381 337.170795661642 297.921323552791 302.247521129581 277.702846781449 298.976426262852 256.03894142388 257.782712595721 206.259417776591 161.57478006077 112.961287385949 59.1434767405414 -3.4e+38 -3.4e+38 -3.4e+38 -3.4e+38 -3.4e+38 -3.4e+38 -3.4e+38 -3.4e+38 -3.4e+38 -3.4e+38 -3.4e+38 -3.4e+38 -3.4e+38 -3.4e+38 -3.4e+38 -3.4e+38 -3.4e+38 -3.4e+38 -3.4e+38 -3.4e+38 -3.4e+38 -3.4e+38 -3.4e+38 -3.4e+38 -3.4e+38 -3.4e+38 -3.4e+38 -3.4e+38 -3.4e+38 -3.4e+38 -3.4e+38 -3.4e+38 -3.4e+38 -3.4e+38 8.05745384141686 78.9657858455208 95.6145969298947 111.449199535771 116.479860912857 132.881250490963 127.274095167231 229.425562920274 164.690962669308 138.556669666784 160.171978846775 217.540327727134
742.401829732926 660.394324404029 802.305756182114 -3.4e+38 -3.4e+38 -3.4e+38 -3.4e+38 -3.4e+38 -3.4e+38 -3.4e+38 -3.4e+38 -3.4e+38 -3.4e+38 -3.4e+38 -3.4e+38 -3.4e+38 -3.4e+38 -3.4e+38 -3.4e+38 -3.4e+38 -3.4e+38 -3.4e+38 -3.4e+38 -3.4e+38 -3.4e+38 -3.4e+38 -3.4e+38 -3.4e+38 -3.4e+38 -3.4e+38 -3.4e+38 -3.4e+38 -3.4e+38 -3.4e+38 404.847052218312 2011.6542148659 980.527236398084 104.313058421558 999.435071681634 170.111211811048 848.25164720894 1517.17353973904 1272.83550266474 1103.69118518988 522.482749790288 591.040294195004 1000.3006622601 1049.59613617116 1156.59728474523 1221.15940555667 947.821436475775 1407.33512142484 1672.19016440272 1400.59778257614 993.037735408728 841.758870881418 997.355707592467 1792.769837636 978.404686914369 1036.91675606993 1431.8469935212 648.67489374642 550.6149893228 464.132129672802 305.467343998302 322.871492272062 475.182767746014 511.018471501446 410.108691330762 353.449254664143 345.075893540313 318.063818086797 323.295693445911 342.004253004671 378.437312759913 352.957004458413 408.771445612395 481.483571003956 695.073115298301 774.560670610349 717.001843968673 318.322020264972 244.918367653163 243 242.353907093907 212 214 218.31799803576 224 244.637370819435 269.382407712761 307.550371161035 337.89598262149 353.764104410199 467.334776787817 445.477830163372 399.640784953999 396.015242050359 285.202690984547 391.386973639901 373.784441090289 384.1847471946 393.712751286133 415.019057840243 392.448114420895 407.285538771645 378.168337146564 404.386592628228 361.929287061643 389.911866746572 328.671341221487 262.587895444989 290.855088794425 261.054918397817 234.228788597429 276.685113372203 212.842030577977 176.412475028208 109.647201704542 72.5738482315434 12.9935577926415 18.2809423652747 2.83535964292909 1 -3.4e+38 -3.4e+38 -3.4e+38 -3.4e+38 -3.4e+38 -3.4e+38 -3.4e+38 -3.4e+38 -3.4e+38 -3.4e+38 -3.4e+38 -3.4e+38 -3.4e+38 -3.4e+38 -3.4e+38 -3.4e+38 -3.4e+38 -3.4e+38 -3.4e+38 -3.4e+38 -3.4e+38 -3.4e+38 -3.4e+38 -3.4e+38 -3.4e+38 -3.4e+38 -3.4e+38 -3.4e+38 -3.4e+38 58.0765097633235 78.2669577060853 76.8066957108746 123.750854552427 145.733598170307 173.143145804445 157.339509372437 165.391085141983 203.964810118556 218.377821177002 213.476725055479 218.625215796241 218.423663373948
858.907816128083 65.0410984205272 -3.4e+38 -3.4e+38 154.630744397979 1.38424512308045 -3.4e+38 -3.4e+38 -3.4e+38 -3.4e+38 -3.4e+38 -3.4e+38 -3.4e+38 -3.4e+38 -3.4e+38 -3.4e+38 -3.4e+38 -3.4e+38 -3.4e+38 -3.4e+38 -3.4e+38 -3.4e+38 -3.4e+38 -3.4e+38 -3.4e+38 -3.4e+38 -3.4e+38 -3.4e+38 -3.4e+38 -3.4e+38 -3.4e+38 -3.4e+38 -3.4e+38 -3.4e+38 -3.4e+38 -3.4e+38 -3.4e+38 -3.4e+38 64.3043341752776 215.002645256827 76.3938185535991 653.854053774223 550.4593635081 1292.95218323788 962.651087771156 1639.10195592948 774.592355452474 1232.46602288912 716.376630868877 1360.12279731679 1796.71785018702 1320.65740583224 1757.20560177844 1637.93279964525 1625.30073862188 905.195890333038 1739.83011552235 1451.6003762812 1512.2807979803 1800.88622190907 2314.06271689348 931.15340197683 909.662793196859 953.218066531573 505.825549443095 516.461821578287 387.632106133257 445.066734985931 427.249074386617 473.511086395126 538.536740695404 550.993388075781 514.388929308721 549.240113619328 372.55394912273 329.62609589017 305.168668236041 291.380555819162 271.560358260613 272.070797230139 278.337549427381 273.384830344934 240.897143112302 255.356441159304 268.852120123555 240.827607123681 226.441307296324 263.518124363204 298.669108390539 316.068215823526 336.643061480995 433.22322375431 469.604516997909 494.713812520012 475.810368361166 544.964808769949 498.534149372417 355.942543940234 375.024865528055 446.883396754239 448.300050174083 503.075973376134 453.009517188904 398 415.646661088219 433.604734717058 370.36043808976 365.235219531574 401.636367223107 412.568138918118 339.860427529772 361.097380154757 319.566296581035 263.440471190725 339.986757774883 279.398960023026 270.71171570988 238.24439963898 156.132643730729 120.856215456832 77.4087018471404 38.5466900446281 40.1179187823762 21.0571947762903 -3.4e+38 -3.4e+38 -3.4e+38 -3.4e+38 -3.4e+38 -3.4e+38 -3.4e+38 -3.4e+38 -3.4e+38 -3.4e+38 -3.4e+38 -3.4e+38 -3.4e+38 -3.4e+38 -3.4e+38 -3.4e+38 -3.4e+38 -3.4e+38 -3.4e+38 -3.4e+38 -3.4e+38 -3.4e+38 -3.4e+38 -3.4e+38 -3.4e+38 -3.4e+38 -3.4e+38 -3.4e+38 -3.4e+38 -3.4e+38 5.32028209662888 103.892470765198 148.97418649712 177.329257185507 190.108813458775 180.153092962125 198.744619630344 221.315888910982 248.723115860052 215.347388606546 228.427064294647 254.977362104285
-3.4e+38 -3.4e+38 250.431384387873 504.676578170735 744.885285334366 -3.4e+38 -3.4e+38 -3.4e+38 -3.4e+38 -3.4e+38 -3.4e+38 -3.4e+38 -3.4e+38 -3.4e+38 -3.4e+38 -3.4e+38 -3.4e+38 -3.4e+38 -3.4e+38 -3.4e+38 -3.4e+38 -3.4e+38 -3.4e+38 -3.4e+38 -3.4e+38 -3.4e+38 -3.4e+38 -3.4e+38 -3.4e+38 -3.4e+38 -3.4e+38 -3.4e+38 -3.4e+38 -3.4e+38 -3.4e+38 -3.4e+38 -3.4e+38 -3.4e+38 207.137397492026 -3.4e+38 -3.4e+38 626.673185602459 -3.4e+38 492.489935693195 1831.91798052769 1976.52716305482 454.464387203131 1484.80814813849 1603.17650567536 1438.37144363691 1274.11633138293 1578.7222724327 1692.75079401422 1301.67651802775 1712.94118672688 1137.44615116254 1280.05539826845 1724.93833574528 1349.20407997243 954.480420834294 1458.81877356483 1111.10664225068 1305.35879445521 811.74485670781 762.31477897784 576.081512503602 674.512742108174 670.979203279562 590.356219321174 677.315470238229 932.287047144007 752.421361208747 545.856027572872 655.268574544279 415.916497393772 348.286687618596 393.881862268702 732.400607532483 775.489312737084 356.33887142279 379.851460708307 403.728737335928 562.695699827785 668.931976585205 664.605679551527 733.679884419417 341.03363269603 273.196016910175 318.268262087898 377.56954945258 519.786069177443 549.793338853003 528.489640809649 547.222331514242 539.942451649102 518.698888633497 466.926643503137 489.691533562537 525.636171270392 579.878151894758 491.383631592661 461.025132922915 397.688081542949 395.534994703674 355.513524368298 339 338 374.80821199253 364.660398744665 386.786670209337 313 339.383023618288 302.519210127222 305.487968247501 305 277.682546990432 287.537434708798 225.125543506563 206.293378659072 199.73976338789 156.39999593349 84.1556943861626 59.5620033496298 39.1383339270595 4.58579957936431 -3.4e+38 -3.4e+38 -3.4e+38 -3.4e+38 -3.4e+38 -3.4e+38 -3.4e+38 -3.4e+38 -3.4e+38 -3.4e+38 -3.4e+38 -3.4e+38 -3.4e+38 -3.4e+38 -3.4e+38 -3.4e+38 -3.4e+38 -3.4e+38 -3.4e+38 -3.4e+38 -3.4e+38 -3.4e+38 -3.4e+38 -3.4e+38 -3.4e+38 -3.4e+38 -3.4e+38 -3.4e+38 -3.4e+38 -3.4e+38 -3.4e+38 166.653621321173 119.439689361878 141.727611541659 218.81403999293 279.660752197562 254.028245287419 243.066638939038 210.962553583485 267.307685582431 282.881638499456
-3.4e+38 460.341687569674 778.792407346734 270.529854002085 -3.4e+38 -3.4e+38 -3.4e+38 -3.4e+38 -3.4e+38 -3.4e+38 -3.4e+38 -3.4e+38 -3.4e+38 -3.4e+38 -3.4e+38 -3.4e+38 -3.4e+38 -3.4e+38 -3.4e+38 -3.4e+38 -3.4e+38 -3.4e+38 -3.4e+38 -3.4e+38 -3.4e+38 -3.4e+38 -3.4e+38 -3.4e+38 -3.4e+38 -3.4e+38 -3.4e+38 -3.4e+38 -3.4e+38 -3.4e+38 -3.4e+38 -3.4e+38 -3.4e+38 -3.4e+38 108.594203661559 644.083728480176 -3.4e+38 351.066794621426 -3.4e+38 187.497347951096 922.077178249194 1473.009577743 1019.23970703923 1535.10493321783 1394.81417808466 641.598088247164 1300.4652527136 1789.29863719437 1336.31445950588 1614.24875926478 1312.86956572524 1335.40074115429 1511.51595937249 1778.40395371776 1654.23743586325 1122.05706399265 1839.5197054807 2061.0189957729 1515.36568283782 1202.44594553216 972.312808588378 947.990195763123 785.407827727488 752.378095001664 800.44824191242 802.539048964013 761.002180265058 695.362661945209 868.725465858888 724.009449001119 598.098712626233 428.373571319493 447.275576520375 578.779542335679 798.634927895805 447.783934571496 534.576824970211 651.956821303492 733.489830659168 796.074205521397 625.933545196158 534.6405492512 299.279305940178 332.31991022628 581.844914571285 486.462138152789 516.839948916888 481.554196297926 479.968621359934 497.08223356422 518.760705760381 518.358550679299 507.60037845476 532.185157733422 511.753300926476 508.448080909691 495.366976963372 441.517424076529 420.747156710716 366.858485996416 339.031036291846 339 351.327831369237 373.273109738196 367.486991970543 318.862242432778 330.856410848069 283.745298656893 271.46053302373 272.225168525023 271.712120359741 239.527337127392 252.088664627086 210 198.973329872796 198.552917195423 202.377165305562 142.957587079347 81.0861440321601 62.0337996826151 25.9214044765592 -3.4e+38 -3.4e+38 -3.4e+38 -3.4e+38 -3.4e+38 -3.4e+38 -3.4e+38 -3.4e+38 -3.4e+38 -3.4e+38 -3.4e+38 -3.4e+38 -3.4e+38 -3.4e+38 -3.4e+38 -3.4e+38 -3.4e+38 -3.4e+38 -3.4e+38 -3.4e+38 -3.4e+38 -3.4e+38 -3.4e+38 -3.4e+38 -3.4e+38 -3.4e+38 -3.4e+38 -3.4e+38 -3.4e+38 -3.4e+38 -3.4e+38 3.14719311305857 190.443030323008 183.293326429964 202.310342764196 197.355482068098 267.709707567767 302.768671095356 338.415794808076 360.426110792857 321.654400797153
-3.4e+38 -3.4e+38 -3.4e+38 -3.4e+38 -3.4e+38 -3.4e+38 -3.4e+38 -3.4e+38 -3.4e+38 -3.4e+38 -3.4e+38 -3.4e+38 -3.4e+38 -3.4e+38 -3.4e+38 -3.4e+38 -3.4e+38 -3.4e+38 -3.4e+38 -3.4e+38 -3.4e+38 -3.4e+38 -3.4e+38 -3.4e+38 -3.4e+38 -3.4e+38 -3.4e+38 -3.4e+38 -3.4e+38 -3.4e+38 -3.4e+38 -3.4e+38 -3.4e+38 -3.4e+38 -3.4e+38 -3.4e+38 -3.4e+38 -3.4e+38 -3.4e+38 33.9255473854882 405.482621840643 114.137174668867 36.0103493677755 -3.4e+38 -3.4e+38 890.630434811161 10.8130324943249 1121.02445430425 1561.90424585417 1334.26518822323 685.976423105109 1422.23983645799 1475.67757703695 1621.93049226168 1271.85028528031 1427.84106210496 1642.86570408661 1722.15997198601 1021.4050724731 1415.91029485596 694.394070205054 1723.40491381473 1603.60096669281 1635.16937114422 969.116085906457 808.807877419404 791.694589208704 764.749374551929 687.594599228395 736.707391302552 1007.01033873773 958.815362589411 918.841694470225 706.610113094437 641.812855252789 376.816455690007 611.229154702636 698.893302649019 706.029757531737 503.391320001567 726.505282349221 724.849927914085 520.443244013653 496.622491933305 485.961332872277 481.489769359165 502.42387064327 384.500004434329 468.975413411255 487.348682619439 498.876304601496 457.097360261316 432 452.872312621905 500.656758432026 450.654211442044 550.152517523419 529.894213618511 534.791603541449 511.499768497733 508.441040598741 420.546912056075 379.55726323421 384.165585803037 381.68628599937 337.909362060107 381.339520215908 364.041696230061 312.744963510477 300.609597356165 272.401382638523 271 281.542129785942 277.167071929881 277.249892314859 273.999937700588 243.336400861268 206.411752514671 185.121715744654 197.010125521062 188.013602034612 136.373910270423 89.3100552980535 63.945829075407 40.9898354838548 40.3789312084273 61.2018216594094 80.8267080817167 77.6259848578684 53.4145558269668 30.1653433777516 17.9376921002569 1 -3.4e+38 -3.4e+38 -3.4e+38 -3.4e+38 -3.4e+38 -3.4e+38 -3.4e+38 -3.4e+38 -3.4e+38 -3.4e+38 -3.4e+38 -3.4e+38 -3.4e+38 -3.4e+38 -3.4e+38 -3.4e+38 -3.4e+38 -3.4e+38 -3.4e+38 -3.4e+38 -3.4e+38 -3.4e+38 -3.4e+38 -3.4e+38 245.249399463017 206.418130463002 213.072875408671 267.863903018195 268.911695561464 275.678745665387 350.766041752007 343.162454375012 307.450685831382
-3.4e+38 -3.4e+38 -3.4e+38 -3.4e+38 -3.4e+38 -3.4e+38 -3.4e+38 -3.4e+38 -3.4e+38 -3.4e+38 -3.4e+38 -3.4e+38 -3.4e+38 -3.4e+38 -3.4e+38 -3.4e+38 -3.4e+38 -3.4e+38 -3.4e+38 -3.4e+38 -3.4e+38 -3.4e+38 -3.4e+38 -3.4e+38 -3.4e+38 -3.4e+38 -3.4e+38 -3.4e+38 -3.4e+38 -3.4e+38 -3.4e+38 -3.4e+38 -3.4e+38 -3.4e+38 -3.4e+38 -3.4e+38 -3.4e+38 -3.4e+38 -3.4e+38 -3.4e+38 460.086948243611 331.959912577793 -3.4e+38 405.670790113239 -3.4e+38 205.826317665125 320.437448836887 352.228892666242 850.552538617242 1868.7653691187 931.5293708241 1235.18105096175 431.480386000955 1495.65583848265 1072.28999395114 918.759474022457 1764.65248480785 1435.70176641877 1264.17698570322 1314.22664903975 1564.7977120042 687.119146033054 1513.29286405358 1499.29479809207 1405.27773703637 995.450410889195 739.516132355669 434.485360847568 672.517480775728 652.924298642883 615.711277113609 649.55962530668 651.789382076849 688.828950809564 657 514.912061286119 671.610503182668 713.369415267485 601.39024136408 600.599097169694 639.873989476219 604.960399083206 560.396866336673 618.978059332726 537.466083704832 543.835001275283 574.339838411413 726.177189829478 480.539871270859 495.367340513639 480.120961226897 433.793049429071 467.352653612644 431.950512431464 446.950901986633 492.811250563186 522.168418934559 511.133360297437 513.425038573044 506.993538493259 430.574592641972 446.57798214932 429.643942901171 351.469361981575 396.510153743137 385.6550952723 347.442721265155 358.610923734309 275.346744685356 292.467917085965 310.827999224189 271.604217088163 308.627955250369 271.527356688808 244.599341084833 220.724698428157 212.989145802522 182.237047049784 183 150.378679987614 154.037285648655 134.421249163338 102.196199543354 78.8285071672312 56.2436340549469 120.196487155622 133.759801296626 158.917232771567 170.673042067887 145.292036854786 104.918764164431 92.5713684905323 42.9827745429271 24.4030726886835 1 -3.4e+38 -3.4e+38 -3.4e+38 -3.4e+38 -3.4e+38 -3.4e+38 -3.4e+38 -3.4e+38 -3.4e+38 -3.4e+38 -3.4e+38 -3.4e+38 -3.4e+38 -3.4e+38 -3.4e+38 -3.4e+38 27.649139459155 51.0852333062707 -3.4e+38 -3.4e+38 -3.4e+38 -3.4e+38 4 278.335451420078 259.434121025421 244.009013746874 277.927144453025 384.052644093674 350.707329295603 342.685900011363 431.963945538897
-3.4e+38 -3.4e+38 -3.4e+38 -3.4e+38 -3.4e+38 -3.4e+38 -3.4e+38 -3.4e+38 -3.4e+38 -3.4e+38 -3.4e+38 -3.4e+38 -3.4e+38 -3.4e+38 -3.4e+38 -3.4e+38 -3.4e+38 -3.4e+38 -3.4e+38 -3.4e+38 -3.4e+38 -3.4e+38 -3.4e+38 -3.4e+38 -3.4e+38 -3.4e+38 -3.4e+38 -3.4e+38 -3.4e+38 -3.4e+38 -3.4e+38 -3.4e+38 -3.4e+38 -3.4e+38 -3.4e+38 -3.4e+38 -3.4e+38 -3.4e+38 -3.4e+38 -3.4e+38 -3.4e+38 -3.4e+38 -3.4e+38 31.4200840370904 73.9122101987271 -3.4e+38 -3.4e+38 470.912884707992 257.57749414759 577.993322663253 1292.62848208632 774.85903005883 388.168247627619 1378.50587666705 1341.36191974818 823.526604013538 1579.4799099888 806.413628709278 987.754406954251 886.565458005689 1200.45155063333 1373.22582563343 688.47768110562 1295.23968799747 1362.18166923557 771.708993675067 1043.54089962778 706.26196531412 779.263415371293 655.751443179631 790.61265622637 750.043871676886 610.899203938643 571.181011408367 539.824266496453 574.951312757276 673.402724523037 682.835141598228 695.351229620328 665.838108492973 668.369810240827 627.376378718566 586.081447036345 559.406842976815 553.684011087077 632.722287024445 671.574306191486 594.734917520967 573.993864282941 572.847454058972 547.173024599015 490.466356543979 446.75687842546 453.364642099279 425 435.35603903902 394.620907939694 433.484311993394 393.47872112253 429.558797392017 428.04765462303 420.923926191608 422.265122817667 367.246863160337 371.877947228461 354.844487157296 291.547110360839 281.550515168994 273.596119250138 301.830897864296 309.890762641593 251.806953356345 297.555124191679 242.367301175944 206.071333670756 182.163431575489 194.675418051425 201.885042054871 200 181.912896944758 162.767533916654 127.96926049263 127.075198861918 156.620938459429 148.283889110062 104.107786241343 112.422736566337 131.423368293542 138.655014595045 141.132590221795 153.632131272628 132.382524419731 99.9493318753175 57.0582251156293 35.1291972840343 32.670030114339 18.7307640610952 -3.4e+38 -3.4e+38 -3.4e+38 -3.4e+38 -3.4e+38 -3.4e+38 -3.4e+38 -3.4e+38 -3.4e+38 -3.4e+38 -3.4e+38 -3.4e+38 -3.4e+38 -3.4e+38 -3.4e+38 -3.4e+38 -3.4e+38 -3.4e+38 -3.4e+38 241.170100130207 241.294799393061 256.817225835005 264.347041611866 293.975367765342 310.085097760665 352.403882653976 343.643500577059 382.468545786001 363.381304704582
-3.4e+38 -3.4e+38 -3.4e+38 -3.4e+38 -3.4e+38 -3.4e+38 -3.4e+38 -3.4e+38 -3.4e+38 -3.4e+38 -3.4e+38 -3.4e+38 -3.4e+38 -3.4e+38 -3.4e+38 -3.4e+38 -3.4e+38 -3.4e+38 -3.4e+38 -3.4e+38 -3.4e+38 -3.4e+38 -3.4e+38 -3.4e+38 -3.4e+38 -3.4e+38 -3.4e+38 -3.4e+38 -3.4e+38 -3.4e+38 -3.4e+38 -3.4e+38 -3.4e+38 -3.4e+38 -3.4e+38 -3.4e+38 -3.4e+38 -3.4e+38 -3.4e+38 -3.4e+38 -3.4e+38 -3.4e+38 -3.4e+38 170.537249964889 343.163025274172 1 19.5338859005607 289.938239506638 408.881053849455 666.166334261104 317.88560857064 555.697763569487 1151.47784352296 990.358603563066 492.992476595762 1051.68951555998 1390.53787235523 875.171898770591 782.12286195519 936.409558592728 1297.94234286299 1001.56457091589 1027.2419348431 799.613533855977 1451.69605264428 1195.66050594291 1055.29941373735 1000.01796782373 1124.70526963808 866.823064937512 781.525232687378 788.513579686119 690 561.499846766389 769.668948584421 657.69285932673 741.940991063423 623.851055952003 713.835334969079 799.566790829662 606.172008806449 578.49274419503 639.684386783032 598 564.59237123741 574.764707611437 606.691949573127 670.67143279294 703.378690024522 720.240304248175 664.583471906061 650.095912558978 494.216542303291 436.916593266609 432.74700815807 490.270692200583 420.075869255635 398.745405631442 388.065394959857 387.317720986296 354.505833191422 384.955104207569 378.205972347705 352.225008618025 343.442731010918 357.754918784156 317.551671155911 323.571099348521 305.432304100449 302.226234642288 297.766246536075 275.774607708474 247.444040370087 212 188.501701310731 200.169258358232 237.002718830923 213 210.501200334171 199.99202272366 180.749382776209 178.429629734945 162.077723500611 146.549243043272 139.996708218641 129.059984572721 112.530668959387 106.581481973662 117.040054166056 116.664705295326 119.471143297908 118.302022653434 95.3786639052922 80.8654469322399 116.020725708946 120.191031955617 108.234910758644 81.2578932288893 39.121965398412 9 -3.4e+38 1.72060065432415 1 -3.4e+38 -3.4e+38 -3.4e+38 -3.4e+38 -3.4e+38 -3.4e+38 -3.4e+38 -3.4e+38 -3.4e+38 -3.4e+38 -3.4e+38 39.6438269828542 199.421165981468 227.216081560022 285.483290097481 303.318133008014 301.54846983732 349.03538809302 369.100534249554 394.010505013286 410.799980973361 398.177622161475 394.682842007937
-3.4e+38 -3.4e+38 -3.4e+38 -3.4e+38 -3.4e+38 -3.4e+38 -3.4e+38 -3.4e+38 -3.4e+38 -3.4e+38 -3.4e+38 -3.4e+38 -3.4e+38 -3.4e+38 -3.4e+38 -3.4e+38 -3.4e+38 -3.4e+38 -3.4e+38 -3.4e+38 -3.4e+38 -3.4e+38 -3.4e+38 -3.4e+38 -3.4e+38 -3.4e+38 -3.4e+38 -3.4e+38 -3.4e+38 -3.4e+38 -3.4e+38 -3.4e+38 -3.4e+38 -3.4e+38 -3.4e+38 -3.4e+38 -3.4e+38 -3.4e+38 -3.4e+38 -3.4e+38 -3.4e+38 -3.4e+38 -3.4e+38 -3.4e+38 12.8596761240902 44.4826278268613 -3.4e+38 -3.4e+38 -3.4e+38 226.154299302229 638.623527537439 453.060262947238 388.197667872848 140.082972043802 1402.91403489755 1295.89092685931 1226.33909614305 927.855557007254 928.270540173544 862.389938185408 760.622353306186 812.428635639713 877.909660155262 871.041120281553 768.042043717229 1452.47316210632 890.694266445829 979.085515836344 1606.04109394745 1243.5769701834 923.835820516879 775.054040520963 781.931390413246 762 736.072558334444 715.460016644251 734.840634086939 851.527494781528 1198.99899373106 1124.41916175458 733.072797203791 582.266319663383 667.581079438246 556.931279332799 591.275064627335 595.984404554836 610.945057906315 630.829732317281 636.95992005265 630.398926621437 605.076504460991 639.229676281256 730.932624603014 487.412542691018 444.269436357594 458 485.965119987298 497.229941735637 480.5694335122 449.686433054178 436.506405998968 653.248933246034 334.154310032402 333.969771211963 332.32750888311 312.989314260374 300.690278400376 320.062901814052 305.770003356819 286.782206551262 272.68938903029 256.155476547189 220.993748189709 210.106816911231 202 210.201559636229 219.070179554491 206.749021219867 195.351540243144 201.239370543785 198.764162059749 187 181 175 194.331828499987 181.985455843636 175.143411515943 153.762009757894 144.342002252023 138.728949601407 126.077144019068 127.216586002651 129.943635495227 134.711871667069 98.8478483206016 100.619925043656 100.591737351854 88.3121690331441 79.4056196667498 90.9884779008496 103.370314963682 71.2902022419552 47.8575781203095 41.7030066551133 17.046534066333 1 -3.4e+38 -3.4e+38 -3.4e+38 -3.4e+38 -3.4e+38 53.7764967577995 79.0404195439876 61.0498174688289 153.041861656489 183.711640353955 250.269367907772 298.477603762955 335.959092914208 313.703835614784 348.068819138539 397.691775445596 384.822660469087 398.377399949102 399.943915584627 449.624602855973
-3.4e+38 -3.4e+38 -3.4e+38 -3.4e+38 -3.4e+38 -3.4e+38 -3.4e+38 -3.4e+38 -3.4e+38 -3.4e+38 -3.4e+38 -3.4e+38 -3.4e+38 -3.4e+38 -3.4e+38 -3.4e+38 -3.4e+38 -3.4e+38 -3.4e+38 -3.4e+38 -3.4e+38 -3.4e+38 -3.4e+38 -3.4e+38 -3.4e+38 -3.4e+38 -3.4e+38 -3.4e+38 -3.4e+38 -3.4e+38 -3.4e+38 -3.4e+38 -3.4e+38 -3.4e+38 -3.4e+38 -3.4e+38 -3.4e+38 -3.4e+38 -3.4e+38 -3.4e+38 -3.4e+38 -3.4e+38 -3.4e+38 -3.4e+38 -3.4e+38 -3.4e+38 -3.4e+38 -3.4e+38 -3.4e+38 61.6021584093363 599.624729115807 1259.05009066414 564.101751175531 713.907357518746 1180.52663522357 1295.71008241119 1519.68764249073 1363.22804983373 840.542152717216 1180.69898644942 1159.01146823583 794.648568929856 827.923222485859 777.715831840471 720.522014437159 816.253822424539 822.63509812532 1666.25580570625 1642.22853943083 1207.24405292027 1426.57010847406 1082.33402367094 964.77746088151 1209.46058473227 1158.43776978334 1005.52853079069 949.228165203116 774.105784536816 810.737128054001 734.940076036318 691.842088907619 671.501735545453 637.705514252895 673.214228082058 665.820898806109 671.844317479278 601.928145991572 599.79854693667 561.108762944376 552.592592682452 534.010520041912 525.656214398536 487.98004034804 476.947665378677 478.801883029031 508.367278386385 542.007572044328 564.398939225359 502 577.458695909294 615.675403633114 438.56723916958 387.413104906421 343.35422691362 282.377787579314 289.17167400505 273 296.539003182118 270 273 273 243.828667885523 213.410217291793 217 224.045215354565 230.136947020525 224 236.819762209848 215 219.962764035271 217.261142391194 219.85474353698 218.976590182991 234.505666547721 222.603849494172 245.055663081164 237.913405668318 218.495467210868 206.746230379499 189.781963859811 170.782761079045 153.416338612204 139.411275336887 138.096356059821 144.902339728257 99.1121571325835 125.861784716371 131.729162215442 100.307433771552 120 133.487304407079 133.348797294068 78.2998560626681 52.3924055106656 17.8764458825835 -3.4e+38 -3.4e+38 -3.4e+38 -3.4e+38 -3.4e+38 -3.4e+38 11.7145814286425 49.1569850463093 138.922727417951 178.248463921326 194.242577961428 185.509268938657 193.350878911162 262.63559281983 249.114442962548 400.834961568431 357.347147553855 436.235234309514 402.327955063848 446.281335599887 440.153359349526
-3.4e+38 -3.4e+38 -3.4e+38 -3.4e+38 -3.4e+38 -3.4e+38 -3.4e+38 -3.4e+38 -3.4e+38 -3.4e+38 -3.4e+38 -3.4e+38 -3.4e+38 -3.4e+38 -3.4e+38 -3.4e+38 -3.4e+38 -3.4e+38 -3.4e+38 -3.4e+38 -3.4e+38 -3.4e+38 -3.4e+38 -3.4e+38 -3.4e+38 -3.4e+38 -3.4e+38 -3.4e+38 -3.4e+38 -3.4e+38 -3.4e+38 -3.4e+38 -3.4e+38 -3.4e+38 -3.4e+38 -3.4e+38 -3.4e+38 -3.4e+38 -3.4e+38 -3.4e+38 -3.4e+38 -3.4e+38 -3.4e+38 -3.4e+38 376.113313140011 -3.4e+38 -3.4e+38 -3.4e+38 -3.4e+38 130.266925389554 530.716061883088 734.828376935799 208.533625005543 486.862365981124 1685.53252144331 1699.43754587034 886.9280784766 986.563430948923 880.670604306441 1047.84840183343 863.44112010785 1270.3290686554 949.863473158159 832.213860882895 772.047292998897 767.700652444934 832.720377325242 1459.49974116056 1278.79530152327 1628.26081757077 1957.55460014966 2048.17088103244 1580.92859797728 1372.16156676526 1340.90168844833 1053.7793542604 1076.19893159723 867.493451927121 840.940321164482 803.594645139353 752.181364663943 706.36966538731 696.033680290697 659.869880424616 650.293666323447 640.571016857875 604.060362373636 559.999217742545 639.922697087581 596.617365692813 683.287415400369 668.395300660201 658.609625931071 660.411312077976 563.334442673264 520.694376711842 487.137223610975 605.47873761488 523.489399019755 500.271971258864 467.541911486132 428.441065956388 351.421719516615 302.498594999622 271 248 253 262.898836371636 256.703683345493 255 274 252.120630186022 216 216 221.648635703925 234.619947108227 239.02064007975 260.066091163393 273.360692175719 270.496628268856 238.248182750508 238.080008632055 247.777661769792 259.226184813408 263.428648816735 258.978737938509 257.759389312048 259.180263610612 226.392526228486 219 213.162168419949 215.995289840497 200 178.926173359876 150.526461149499 123.921223198405 121.92663697413 120 103.372830803146 99.2019859659204 99.0026024327721 99.126409045016 93.5708173665893 67 48.2079211483869 4.07382680036663 -3.4e+38 -3.4e+38 -3.4e+38 -3.4e+38 -3.4e+38 -3.4e+38 5.76122747298334 75.0894657997053 165.961923009439 170 170 177.597517152806 233 233 276.322806589895 274.303212675858 311.082720910446 422.626393602399 395.022139807017 459.3059969732
-3.4e+38 -3.4e+38 -3.4e+38 -3.4e+38 -3.4e+38 -3.4e+38 -3.4e+38 -3.4e+38 -3.4e+38 -3.4e+38 -3.4e+38 -3.4e+38 -3.4e+38 -3.4e+38 -3.4e+38 -3.4e+38 -3.4e+38 -3.4e+38 -3.4e+38 -3.4e+38 -3.4e+38 -3.4e+38 -3.4e+38 -3.4e+38 -3.4e+38 -3.4e+38 -3.4e+38 -3.4e+38 -3.4e+38 -3.4e+38 -3.4e+38 -3.4e+38 -3.4e+38 -3.4e+38 -3.4e+38 -3.4e+38 -3.4e+38 -3.4e+38 -3.4e+38 -3.4e+38 -3.4e+38 -3.4e+38 -3.4e+38 -3.4e+38 -3.4e+38 358.882973086165 -3.4e+38 -3.4e+38 -3.4e+38 -3.4e+38 -3.4e+38 194.820856241999 369.289588343697 1244.34064701393 1425.33681038273 1177.87171270208 1001.88580586873 813.804911657984 995.046569229646 1165.45408539321 1075.43046908592 1094.25344012759 919.328555469979 879.81559618899 753.503336897598 964.062366672186 1301.88306005294 1025.18211822298 1960.73986298162 1802.20151047262 2118.26473816171 1778.66354485174 2391.9357528212 1546.128051568 1159.34721364273 1249.51383287785 1122.52591505357 1056.12023556146 975.551206101066 887.405327000234 794.178890257737 730.411579011707 735.4205763411 762 766.886283813526 684.791962704493 673.363596935536 678.424954370359 617.58065453362 672.006070705818 596.761152252561 580.204439127957 572.090504139823 701.440044759652 745.065176913891 646.457234268152 505.277235585681 488.55510963238 458.321381279188 435.783142031781 439.247535799858 393.061197828355 361.63941028536 337.633437118506 544.754425384389 600.503101511569 304.437264611847 265 277.097461242031 253 269.50769924628 220.3698705057 216 216 218 223 254.945654830945 275.546015066093 305.143793293926 297.817729760036 305 305.330515482449 285.490238697326 302.010120199178 299.838637753826 278.665199188902 299.088943980552 275.383023092522 281.63008548572 280.830568343433 260.797541118879 245.79051448633 241.640928658916 239.454425039799 216.993396375881 180.560638111829 166.82460753952 142.796505740775 122.148944702315 108 100.525125088028 102.447766800508 81.0630552507991 63.0619183902033 34.2689411345677 2.46331167351827 -3.4e+38 -3.4e+38 -3.4e+38 -3.4e+38 -3.4e+38 -3.4e+38 30.0233961848126 112.419520176265 180.243106105055 227.943302356385 203.387763412436 250.244580739699 293.809421752665 309.83740602846 333.319482130694 381.479654237175 456.483386588709 426.483796759608 485.604972771437 575.507006415611
-3.4e+38 -3.4e+38 -3.4e+38 -3.4e+38 -3.4e+38 -3.4e+38 -3.4e+38 -3.4e+38 -3.4e+38 -3.4e+38 -3.4e+38 -3.4e+38 -3.4e+38 -3.4e+38 -3.4e+38 -3.4e+38 -3.4e+38 -3.4e+38 -3.4e+38 -3.4e+38 -3.4e+38 -3.4e+38 -3.4e+38 -3.4e+38 -3.4e+38 -3.4e+38 -3.4e+38 -3.4e+38 -3.4e+38 -3.4e+38 -3.4e+38 -3.4e+38 -3.4e+38 -3.4e+38 -3.4e+38 -3.4e+38 -3.4e+38 -3.4e+38 -3.4e+38 -3.4e+38 -3.4e+38 -3.4e+38 -3.4e+38 -3.4e+38 -3.4e+38 -3.4e+38 184.537768814963 -3.4e+38 -3.4e+38 -3.4e+38 -3.4e+38 85.9195920868152 85.1372084421038 460.017956795679 1065.68205828718 1432.08633988788 1512.79470608009 848.035771420328 1946.04982201904 1954.52090656145 1645.71951436186 1608.41523910203 1423.45059232568 1359.01807782373 1226.12118310157 1129.5805752365 1064.67281645442 1591.87738480103 1331.15191216172 2387.55248559107 2563.7047102939 817.09545898819 2216.48653137238 2242.45314227509 2062.53840057322 2172.16403352412 1683.7332175444 1208.8881008225 1061.94305888478 1030.40884318806 985.651387088036 924.183633185887 849.18289886139 766.963594055465 779.877174382258 708.798157898852 679.996162618858 670.630005085217 670 626.049549345063 597 671.734418349974 598.53877691067 524.96322543829 595.155660813014 584.604949041746 481.44150643586 489.523588703138 529.513257358824 531.543482798495 475.25132222108 505.2590554965 516.253489424188 460.62713976023 421.472472117443 368.476016262455 392.244003304504 563.770392528193 250.559777712329 254.545044555872 251.369627524167 268.093879612008 216 216 222 240.108287709502 239.807070549096 257.425324692699 284.466493497708 305.786298268794 326.722427308976 347.38304574496 319.663046480625 299.39646267709 297.828224170066 318.609051141715 313.893853162199 320.426931899319 298.264935912493 294.133055284097 279.460903694127 264.468110764684 236.843765870549 239.251745057843 250.896321611762 199.092477693413 182.898750523155 166.164666459314 152.084958456788 145.860541195223 142.473083468333 97.8297707507802 78.7751205954692 49.4592146605526 22.7453217482147 5.17891938958142 -3.4e+38 -3.4e+38 5.46372049481631 -3.4e+38 -3.4e+38 -3.4e+38 19.9701117765057 54.0674596940184 138.711500255275 178.982661087263 250.57557744955 229.111267083947 278.73143091284 325.443097927907 387.217039580779 435.614770609315 393.425208529227 541.18422459447 507.572229415283 471.594441219577
-3.4e+38 -3.4e+38 -3.4e+38 -3.4e+38 -3.4e+38 -3.4e+38 -3.4e+38 -3.4e+38 -3.4e+38 -3.4e+38 -3.4e+38 -3.4e+38 -3.4e+38 -3.4e+38 -3.4e+38 -3.4e+38 -3.4e+38 -3.4e+38 -3.4e+38 -3.4e+38 -3.4e+38 -3.4e+38 -3.4e+38 -3.4e+38 -3.4e+38 -3.4e+38 -3.4e+38 -3.4e+38 -3.4e+38 -3.4e+38 -3.4e+38 -3.4e+38 -3.4e+38 -3.4e+38 -3.4e+38 -3.4e+38 -3.4e+38 -3.4e+38 -3.4e+38 -3.4e+38 -3.4e+38 -3.4e+38 -3.4e+38 -3.4e+38 -3.4e+38 -3.4e+38 -3.4e+38 257.105715169579 -3.4e+38 -3.4e+38 -3.4e+38 -3.4e+38 -3.4e+38 -3.4e+38 -3.4e+38 116.478126260514 1478.7428006245 2052.90017526411 1017.29464863765 1259.70675751967 1553.03267151915 1091.09603983541 1137.8768211606 1128.34741661214 1216.04578174678 524.209761843098 1037.78504489046 1110.82353947595 1188.75031927314 857.159221973998 1624.74882022333 1265.09113717592 1429.75321920536 2309.36645187069 1935.40905418753 2383.60950318337 2526.03355875399 1707.70422561908 1397.48852843101 1155.07601443838 996.233291512699 920.120827001369 894.545172454378 810.288761089 827.032771743922 822.983006068034 753.94164864555 765.404203905281 700 697.281559413269 719.600420970931 660.448287351852 653.453104023188 659.580468000961 673.7920868157 487.233194232281 513.017811989907 528.898638336432 585.433715549336 555.550467646285 579.684828008715 554.214179351238 548.808648124545 639.454180295159 575.102536101662 528.426046932438 580.78932418411 322.644737009367 313.684679557826 257.105876760783 253.869426420447 274 245.526438691478 218.545036451982 222 222 234 273.557886345208 306.709846691091 328.261256711632 360.77432035895 362.284141255024 368.209707902317 377.808284805475 368 388.162882282537 414.401744578026 390.594839349678 346.98709902795 323.256720510316 316.183211783947 279.452418950728 259.559449850535 257.597304378802 255.015201069714 240.13810276422 206.400764864274 178.849093532641 180 166.924274181348 161.210058695042 124.189303826231 80.3894644789917 56.0246382171364 41.3236772395751 39.2339590456407 11.8313689176377 -3.4e+38 -3.4e+38 -3.4e+38 -3.4e+38 -3.4e+38 -3.4e+38 30.3580909005858 125.330332753268 206.532043609669 242.899290721502 219.638083284138 255.632766667311 305.324966977666 340.481588718533 349.551389798414 387.029289970411 411.270493804904 472.294809030094 543.232415970367
-3.4e+38 -3.4e+38 -3.4e+38 -3.4e+38 -3.4e+38 -3.4e+38 -3.4e+38 -3.4e+38 -3.4e+38 -3.4e+38 -3.4e+38 -3.4e+38 -3.4e+38 -3.4e+38 -3.4e+38 -3.4e+38 -3.4e+38 -3.4e+38 -3.4e+38 -3.4e+38 -3.4e+38 -3.4e+38 -3.4e+38 -3.4e+38 -3.4e+38 -3.4e+38 -3.4e+38 -3.4e+38 -3.4e+38 -3.4e+38 -3.4e+38 -3.4e+38 -3.4e+38 -3.4e+38 -3.4e+38 -3.4e+38 -3.4e+38 -3.4e+38 -3.4e+38 -3.4e+38 -3.4e+38 -3.4e+38 -3.4e+38 -3.4e+38 -3.4e+38 -3.4e+38 -3.4e+38 -3.4e+38 -3.4e+38 -3.4e+38 -3.4e+38 -3.4e+38 -3.4e+38 -3.4e+38 642.374659183554 264.500106896026 1578.14615644256 1443.08136996001 942.878234213679 2141.27040952781 1267.5639600571 1398.789805295 1223.6844499171 1216.65082698586 1046.12386726001 980.111544809153 1069.20348416009 1075.86982478835 1386.22296466983 1408.11765035081 1661.20072249708 1708.79585442415 1050.73918798468 1519.49202955558 2193.70521527731 1861.16307372674 1988.58840750559 2943.09221274677 2603.76234168896 1519.26249563885 1169.41344766551 1060.73832029061 970.335911826648 916.645754931405 829.377440613792 830.65980422361 809.789155378713 764.109643389734 751.500274333074 667.497693186388 732.000493598441 705.037276337502 628.77877138502 675.587519729975 583.474597493156 534.340414117035 501.417010613324 625.908926182252 525.55418210975 517.198579643025 530.906057603685 563.323614576892 539.019789140129 538.51636075676 514.776626327103 480.773374415152 586.087137611817 649.202512596076 700.358180852959 301.813284082204 252.088750376258 252.604030551881 261.401338124972 243.247863719884 224.934360149987 219 219.74181962162 244.148398298483 281.183919951057 302.370481858892 353.301932834932 369.396961411811 339.106728752793 359.977153972441 393.747967788221 416.580062311159 400.042613567062 398.898713020568 380.437587903083 356.07748791808 329.600039932079 354.86451311365 345.488822423138 305.312484050652 299.043479915739 264.318183304464 219.92627689813 165.198148814149 159.05617735008 156.82713050787 163.176116404409 114.480015317875 76.9268177835267 63.3502101619004 63.3425187798151 59 50.5414463474738 35.8094968059804 5.5448308026141 -3.4e+38 -3.4e+38 -3.4e+38 17.4538669365597 66.011752783912 160.968890198094 182.772181030435 217.030152110281 271.703583815975 303.616993410508 301.531512207092 357.207445894628 365.571921299065 333.75676487639 386.256626437937 772.164309120502 669.147983999488
-3.4e+38 -3.4e+38 -3.4e+38 -3.4e+38 -3.4e+38 -3.4e+38 -3.4e+38 -3.4e+38 -3.4e+38 -3.4e+38 -3.4e+38 -3.4e+38 -3.4e+38 -3.4e+38 -3.4e+38 -3.4e+38 -3.4e+38 -3.4e+38 -3.4e+38 -3.4e+38 -3.4e+38 -3.4e+38 -3.4e+38 -3.4e+38 -3.4e+38 -3.4e+38 -3.4e+38 -3.4e+38 -3.4e+38 -3.4e+38 -3.4e+38 -3.4e+38 -3.4e+38 -3.4e+38 -3.4e+38 -3.4e+38 -3.4e+38 -3.4e+38 -3.4e+38 -3.4e+38 -3.4e+38 -3.4e+38 -3.4e+38 -3.4e+38 -3.4e+38 -3.4e+38 -3.4e+38 -3.4e+38 -3.4e+38 -3.4e+38 -3.4e+38 -3.4e+38 -3.4e+38 -3.4e+38 32.3469169336269 204.017069358359 1247.88340737817 929.732698092718 1476.48733142515 1485.24251287313 2015.26334696359 1988.10009853688 1617.84472876997 2254.12804958898 1617.86265574827 1557.33232933466 1220.90576844329 1060.22081493776 1227.03436187767 1221.84576604481 1468.35309142366 1689.46513372946 1205.19117356759 1008.18416956231 2220.99474610575 2422.17952745182 1317.49197342659 2193.75326010518 2299.37191525704 1590.20996252722 1225.94737347038 1161.44585438783 999.066983702754 929.449965710267 889.964774077241 783.534580897177 761.567273373124 781.652037676514 762.684306939179 753.222882512492 688.637013412553 688.577571222029 691.4696231226 639.775929016991 576.64926741405 671.287521845413 608.717292903802 593.133676991262 599.111470161066 500 551.75410596624 740.496380327548 669.091725525515 666.223057421031 523.076413439946 516.804777557541 511.926884213829 555.483043303529 480.395688342047 312.628730360488 259 261.447294025168 247 273.746365569755 255.191728574983 236.998438828609 220 242.178552029317 279.103291236111 338.055257509015 343.760497774882 394.644061659586 384.344007724971 390.551179078075 400.294055799162 408.119330348642 393.054447580575 395.465482580836 389.35952874081 382.93098702335 368.89281077182 346.607431239675 353.636549596992 290.772790324131 262.359680151862 248.999157372091 233.820910115986 190.572925214756 163.95498777477 166.674743427245 140.177085628069 84.1697010822132 87.3605293898444 89.9018726056879 95.0430258767781 111.021041325814 63.4385657224144 42.0197472175268 14.8475873171946 5.95204160989297 -3.4e+38 6 24.8377307516655 93.2533249059147 213.901476502235 232.842515194028 267.482052636089 279.585695922646 346.941333227407 339.809527388815 343.577391119258 355.147070121168 398.703754213075 388 396.452807884332 471.824012442849
-3.4e+38 -3.4e+38 -3.4e+38 -3.4e+38 -3.4e+38 -3.4e+38 -3.4e+38 -3.4e+38 -3.4e+38 -3.4e+38 -3.4e+38 -3.4e+38 -3.4e+38 -3.4e+38 -3.4e+38 -3.4e+38 -3.4e+38 -3.4e+38 -3.4e+38 -3.4e+38 -3.4e+38 -3.4e+38 -3.4e+38 -3.4e+38 -3.4e+38 -3.4e+38 -3.4e+38 -3.4e+38 -3.4e+38 -3.4e+38 -3.4e+38 -3.4e+38 -3.4e+38 -3.4e+38 -3.4e+38 -3.4e+38 -3.4e+38 -3.4e+38 -3.4e+38 -3.4e+38 -3.4e+38 -3.4e+38 -3.4e+38 -3.4e+38 -3.4e+38 -3.4e+38 -3.4e+38 -3.4e+38 -3.4e+38 -3.4e+38 -3.4e+38 -3.4e+38 -3.4e+38 122.723400049151 321.281370330282 -3.4e+38 -3.4e+38 718.316395551076 448.078056543095 1069.71368305889 1437.17366179864 1779.86980212416 1454.43077998772 1689.16080668077 1379.82318749582 1278.71590889603 1905.62379797869 420.084170884483 621.65910862009 1011.36825491685 435.928122926317 431.608022355951 1323.40297160037 2339.07936516831 499.26675854994 1997.95794038476 2284.37319950601 1135.9408107779 2317.03325257874 1939.00454299541 2006.04471177158 1175.9685623508 1078.66367145716 917.886618067447 813.602425614014 770.035105065913 718.40393073336 774.816636983597 798.940022421628 723.362581463213 722.254600119604 706.971704782563 665.264448659987 647.275848508461 725.359061850425 621.281721071774 642.818094520827 604.816572543998 566.486780959676 552.309181549969 541.407837352392 577.044691332556 479.843781556528 578.085325426667 548.675727548189 515.945809347717 510.385998104957 558.664222252557 632.708338624034 570.990441209055 671.5642203156 300.751898012512 250.787259425524 250.522444847274 272.972574747035 254.028172366767 216 230.066576667913 288.68696264854 322.996293681861 372.780117904418 370.332963525121 398.002146292313 362.473697686918 401.004115756232 441.910511497876 397.972702600148 398.21860203858 399 398.175169987768 382.73672793442 362.133316514468 362.774710980773 355.679839332008 335.400768901901 299.328335355831 274.607307388174 236.288529933294 185.661209701217 152.963612987471 126.576426758223 100.201783342367 111.995607508743 159.503574627562 160.562715087722 94.706629974409 62.3673705237848 31.4894971034415 71.3540297773337 117.577539034623 59.1562112551346 71.4113876200079 151.252219657109 201.525903941844 245.51884920273 246.580678948369 275.101533703257 270.459451745178 286.962494265791 316.894106558992 389.020247850574 388.560021763562 392.396214607926 495.17156156157 529.079369817281 534.692941182521
-3.4e+38 -3.4e+38 -3.4e+38 -3.4e+38 -3.4e+38 -3.4e+38 -3.4e+38 -3.4e+38 -3.4e+38 -3.4e+38 -3.4e+38 -3.4e+38 -3.4e+38 -3.4e+38 -3.4e+38 -3.4e+38 -3.4e+38 -3.4e+38 -3.4e+38 -3.4e+38 -3.4e+38 -3.4e+38 -3.4e+38 -3.4e+38 -3.4e+38 -3.4e+38 -3.4e+38 -3.4e+38 -3.4e+38 -3.4e+38 -3.4e+38 -3.4e+38 -3.4e+38 -3.4e+38 -3.4e+38 -3.4e+38 -3.4e+38 -3.4e+38 -3.4e+38 -3.4e+38 -3.4e+38 -3.4e+38 -3.4e+38 -3.4e+38 -3.4e+38 -3.4e+38 -3.4e+38 -3.4e+38 -3.4e+38 -3.4e+38 -3.4e+38 -3.4e+38 -3.4e+38 -3.4e+38 179.540822678314 778.281132419605 273.515245630606 670.626969533528 296.787013049426 151.108952982897 771.261293128157 951.231757692334 1669.36103202113 1844.95049007906 1907.55976966475 2045.07927326577 1714.20318892454 1090.07160489793 1449.9343032753 1217.01524580862 1765.12794543606 423.18817268882 606.237100616568 2208.49003496657 754.640665162771 2298.99452638119 1354.61149787224 1736.16849658402 1599.42266528804 1642.1852002903 2198.54962650256 1398.09216759817 1089.92235737124 969.661780871912 905.201763460521 771.698663685206 746.900192403525 761.980199712398 722.502884498925 785.454055970728 755.326832540124 726.486218584021 732.400610293791 748.288756650659 820.069135597262 750.860716660213 721.810338780728 721.643561144785 733.507330064686 559.084404189196 581 579.729213477353 644.810074394756 679.85889985168 652.042667230745 608.361033176221 562.324610111025 461.12620898536 525.714340007547 583.036591421996 542.37723821455 313.930951227191 256.122209101851 247 263.841935191692 243.333841416697 224.652876433364 270.605940947555 280.609702531406 301.901276938923 342.10684665707 334.029533205893 349 386.305977666617 395.159181593838 377.933111937685 389.788688935878 399.388189615308 448.485156842506 410.186797591648 399.611027994656 365.780577650237 280.625541131779 283.14149950305 333.591881588249 334.050471023882 315.488940673619 286.867840277976 219.271059748198 171.5897746433 127.390009744752 90.5543471617489 167.049812390729 159.504620533198 133.601627035598 84.2610246211436 96.450830859571 182.606290997368 222.458068474644 264.61562713026 253.706791013825 252.158235426755 269.244915206427 246.929145196708 245.5345787621 250.905540060001 274.730414306642 365.666183511019 361.735398943652 360.978454697808 402.059034717718 395.494276138013 475.108868121024 464.093540919711 432.294353757651 480.541124327617
-3.4e+38 -3.4e+38 -3.4e+38 -3.4e+38 -3.4e+38 -3.4e+38 -3.4e+38 -3.4e+38 -3.4e+38 -3.4e+38 -3.4e+38 -3.4e+38 -3.4e+38 -3.4e+38 -3.4e+38 -3.4e+38 -3.4e+38 -3.4e+38 -3.4e+38 -3.4e+38 -3.4e+38 -3.4e+38 -3.4e+38 -3.4e+38 -3.4e+38 -3.4e+38 -3.4e+38 -3.4e+38 -3.4e+38 -3.4e+38 -3.4e+38 -3.4e+38 -3.4e+38 -3.4e+38 -3.4e+38 -3.4e+38 -3.4e+38 -3.4e+38 -3.4e+38 -3.4e+38 -3.4e+38 -3.4e+38 -3.4e+38 -3.4e+38 -3.4e+38 -3.4e+38 -3.4e+38 -3.4e+38 -3.4e+38 -3.4e+38 -3.4e+38 -3.4e+38 -3.4e+38 -3.4e+38 -3.4e+38 -3.4e+38 323.280680452122 568.487129330184 1159.61491635149 907.233050439581 -3.4e+38 -3.4e+38 1012.66572599383 1441.78091097364 1033.25664051978 599.342407238076 1456.47858661473 1279.53550348512 1005.17786520783 1393.59055707548 428.953778859657 1468.18955585409 1144.91970878224 1206.82179129505 1839.24059475751 1874.09454728302 1878.3509095946 2230.15318572634 812.983079301857 1529.66436349103 2036.83831014931 1498.27164404276 1342.04007204253 942.661080876645 886.781067875601 832.663079705412 813.125868497277 848.550354523225 892.360733798154 1058.82797283237 926.58306478341 1146.00394987559 1061.30574067017 906.867069102895 802.760762557122 790.645449783484 760.127989532746 729.266872314581 704.79426633135 724.015074435723 661.256940385859 581.086507940104 606.787010891993 609.080884685483 668.098841386513 749.157715693658 602.626135315069 484.015665898759 426.668107588663 426 353.764471746332 368.122345105273 304.241250254509 287.763383204728 241.735564601099 238 245.233761553724 285.214230622705 305.572153888257 336.729752972244 365.659171154937 377.603563505488 394.184258891352 365.939627064358 373.624277921442 418.431431022179 417.749778019561 424.429112265502 441.36795602081 456.830670138805 444.417037583618 357.653046127666 266.034518355895 270 317.217728449451 367.805947484804 319.122594177734 325.842724089205 290.122946737865 205.339813221048 256.711831821624 268.747419620884 243.386923586815 211.829056687406 236.740869644386 212 225.645519076795 246.982291518144 272.596778424391 304.713233390435 295.634983501996 262.775840505109 275.090743481189 272.2272943172 259.502513603341 268.257479916537 263 298.255637968339 320.613570027522 354.612780781729 371 384.148685505222 444.439659031978 371.513312480014 428.545458076842 337.803333883402
-3.4e+38 -3.4e+38 -3.4e+38 -3.4e+38 -3.4e+38 -3.4e+38 -3.4e+38 -3.4e+38 -3.4e+38 -3.4e+38 -3.4e+38 -3.4e+38 -3.4e+38 -3.4e+38 -3.4e+38 -3.4e+38 -3.4e+38 -3.4e+38 -3.4e+38 -3.4e+38 -3.4e+38 -3.4e+38 -3.4e+38 -3.4e+38 -3.4e+38 -3.4e+38 -3.4e+38 -3.4e+38 -3.4e+38 -3.4e+38 -3.4e+38 -3.4e+38 -3.4e+38 -3.4e+38 -3.4e+38 -3.4e+38 -3.4e+38 -3.4e+38 -3.4e+38 -3.4e+38 -3.4e+38 -3.4e+38 -3.4e+38 -3.4e+38 -3.4e+38 -3.4e+38 -3.4e+38 -3.4e+38 -3.4e+38 -3.4e+38 -3.4e+38 -3.4e+38 -3.4e+38 -3.4e+38 -3.4e+38 -3.4e+38 -3.4e+38 -3.4e+38 319.780989861133 1050.44357837558 110.457124608851 186.627611830524 -3.4e+38 1 13.0435465682779 211.630380109613 192.11000971785 1101.10713181928 1586.45190574399 1817.92732909746 1483.81927790283 1444.51129991988 1207.75378873577 859.81952776257 1753.31463416767 1170.12695494152 1623.42254863366 1396.97524654276 1877.34267016435 763.862568404303 1791.36495479804 1570.01004718827 1307.33616796019 1115.11277029366 1285.461705123 1044.83445115858 929.172261709548 936.492677910607 897.519293486477 971.780811634773 956.275737098236 972.714237098168 925.559187668976 957.182080195247 813.759527084913 976.656167135331 956.752033995905 962.806816235033 866.535049608439 698.541750200846 760.571240918555 729.726765880442 590.65072418694 570.788818062312 581.614044553592 561.562445075908 526.33152914555 474.89113465388 459.773331166405 510 489.341665657176 439.171926189302 446.603772429022 378.934366908987 252.073418157264 237 282.267535147758 331.703376144237 350.202933018795 347.761058439373 333 333.315513345315 387.43045116581 400.321682603671 449.125690248995 409.989680257771 466.995508887693 479.835776895516 499.431493639703 505.723073519805 483.076207966578 452.637352914775 268.499926916946 299.86347185156 466.423090571748 398.437287384093 393.117690479112 345.784812165783 322.446791023332 363.997503597399 363.049811253246 304.062162265729 299.186502804098 274.950160461561 266.925329987465 260.439010872873 233.006053056201 242.726514931541 273.508068351958 345.276353071663 290.889900715015 295.165310691524 274.810371152459 312.591048579253 303.318155573252 277.999406911015 307.138583044585 336.320511137908 391.278078677423 380.663739476926 441.092787237287 409.884064285656 393.086679631312 405.690802274991 316.991460671123 216.389741384973
-3.4e+38 -3.4e+38 -3.4e+38 -3.4e+38 -3.4e+38 -3.4e+38 -3.4e+38 -3.4e+38 -3.4e+38 -3.4e+38 -3.4e+38 -3.4e+38 -3.4e+38 -3.4e+38 -3.4e+38 -3.4e+38 -3.4e+38 -3.4e+38 -3.4e+38 -3.4e+38 -3.4e+38 -3.4e+38 -3.4e+38 -3.4e+38 -3.4e+38 -3.4e+38 -3.4e+38 -3.4e+38 -3.4e+38 -3.4e+38 -3.4e+38 -3.4e+38 -3.4e+38 -3.4e+38 -3.4e+38 -3.4e+38 -3.4e+38 -3.4e+38 -3.4e+38 -3.4e+38 -3.4e+38 -3.4e+38 -3.4e+38 -3.4e+38 -3.4e+38 -3.4e+38 -3.4e+38 -3.4e+38 -3.4e+38 -3.4e+38 -3.4e+38 -3.4e+38 -3.4e+38 -3.4e+38 -3.4e+38 -3.4e+38 -3.4e+38 -3.4e+38 -3.4e+38 -3.4e+38 -3.4e+38 697.857993475112 71.9360841937412 54 -3.4e+38 652.019397513526 1073.38116854985 1765.47741812561 1707.48425539664 1821.89786565401 1340.34247065593 1134.66290588391 1020.95025518097 951.872580198943 1327.89169175554 1395.8865442466 1243.44450921949 823.199389452204 1598.01565551289 1519.80283834528 1565.57257440102 1114.10893515019 1943.47460865283 1544.23322101988 1288.67203800531 1204.23487146269 1058.18495794094 1159.10436802011 975 853 840.506376558053 789.262518621378 990.173673755804 838.775629943202 833.066697305654 782.279201738004 798.876705894278 931.97184025942 843.343083237776 853 644.164765561085 724.402758151337 673.138292664229 681.830319135863 739.283506998875 602.86551236716 522.182651393006 464.27691614426 446.149797902318 483.46658238646 534.864624735239 466.8274324439 486.371196194157 493.326202553272 305.213804710274 243.843891483509 275.740172775149 312.90832149701 325.192353683778 360.645895932306 332.673851096146 334.657892355292 369.600070576248 344.493051019996 389.35835883421 367.744101998202 398.162519384465 451.632429170493 473.802906263178 468.24327399197 492.911507279443 483.74337232694 449.074455205558 250.590141893985 184.890961839714 191.411929320974 184 335.105925106997 351.399956923813 424.960301302792 362.848026367641 344.659368426381 315.808712519377 311.32238930714 284.964347448854 272.98978969235 305.627354475842 300.676326687493 289.36851130639 272.066502315667 283.824846001349 273.005530011683 307.740211575622 306.131956282222 305.686306400993 301.073294651561 398.254455221315 419.602594265471 395.138688191319 494.363530003547 412.076880170417 563.601059223261 490.161218594207 547.261423956232 288.053884820308 103.21257291904
