NCOLS 83 
NROWS 51 
XLLCORNER -155 
YLLCORNER 22 
CELLSIZE 1 
NODATA_value -3.4e+38 
-340000000000000033902778449003393581056.000000000000000 -3.4e+38 -3.4e+38 -3.4e+38 -3.4e+38 -3.4e+38 -3.4e+38 -3.4e+38 -3.4e+38 -3.4e+38 -3.4e+38 -3.4e+38 -3.4e+38 -3.4e+38 -3.4e+38 -3.4e+38 -3.4e+38 -3.4e+38 -3.4e+38 -3.4e+38 -3.4e+38 -3.4e+38 -3.4e+38 -3.4e+38 -3.4e+38 -3.4e+38 -3.4e+38 -3.4e+38 -3.4e+38 -3.4e+38 58.3238063244122 44.2723667253759 118.78584264724 128.155471694248 132.956678784162 114.575077055782 1 140.085259289001 215.210467888195 123.88296844443 23.7778708662747 138.209521705023 227.112730605088 33.9484779924051 40 302.7286915231 -3.4e+38 148.966483168886 136.149655130657 67.9224689068218 -3.4e+38 -3.4e+38 -3.4e+38 37.0194182286163 17.3964800817534 53.2144435384564 56.1915318959778 52.5086758354898 138.762699886937 -3.4e+38 296.821322582273 8.76747238566628 -3.4e+38 -3.4e+38 -3.4e+38 82.9465540979065 120.932291044165 256.516753916496 199.746842994719 110.95625649296 291.748812196326 327.152490058359 562.594736575152 365.032496792711 26.2645416368737 -3.4e+38 49.9668422198547 447.463324439406 824.682061418367 171.44660089568 -3.4e+38 -3.4e+38 -3.4e+38
-3.4e+38 -3.4e+38 -3.4e+38 -3.4e+38 -3.4e+38 -3.4e+38 -3.4e+38 -3.4e+38 -3.4e+38 -3.4e+38 -3.4e+38 -3.4e+38 -3.4e+38 -3.4e+38 -3.4e+38 -3.4e+38 -3.4e+38 -3.4e+38 -3.4e+38 -3.4e+38 -3.4e+38 -3.4e+38 -3.4e+38 -3.4e+38 -3.4e+38 -3.4e+38 -3.4e+38 -3.4e+38 -3.4e+38 -3.4e+38 -3.4e+38 368.567017979979 350.464148402222 72.6267538164234 -3.4e+38 -3.4e+38 -3.4e+38 71.7338328747929 141.014528851402 -3.4e+38 221.877139169556 432.315451363832 250.599441657752 264.126435510607 323.191283420623 254.384214688791 53.7247510080256 60.8732557953772 70.7172814311931 107.464352677586 29.4452593643126 -3.4e+38 -3.4e+38 -3.4e+38 -3.4e+38 -3.4e+38 38.1251162704806 -3.4e+38 -3.4e+38 216.558871859692 165.001674642145 26.6091104868102 -3.4e+38 -3.4e+38 -3.4e+38 121.53335251493 193.432809870197 144.3632164172 202.716659691791 14.5767413076875 136.081908112025 135.543178806082 272.856273478537 296.526226804459 354.756978962159 658.929371211875 595.742588251375 734.873608428123 824.15483562252 287.959760044546 961.6673010048 -3.4e+38 148.50030479084
3.37766243741558 1 10.1703086365185 -3.4e+38 1 2.69447640029869 -3.4e+38 -3.4e+38 -3.4e+38 -3.4e+38 -3.4e+38 -3.4e+38 -3.4e+38 -3.4e+38 -3.4e+38 -3.4e+38 -3.4e+38 -3.4e+38 -3.4e+38 -3.4e+38 -3.4e+38 -3.4e+38 -3.4e+38 -3.4e+38 -3.4e+38 -3.4e+38 -3.4e+38 -3.4e+38 -3.4e+38 -3.4e+38 -3.4e+38 -3.4e+38 -3.4e+38 -3.4e+38 -3.4e+38 -3.4e+38 -3.4e+38 -3.4e+38 -3.4e+38 -3.4e+38 -3.4e+38 -3.4e+38 -3.4e+38 99.1721758589278 204.258382211134 127.784985062978 147.022451409915 133.69736150668 190.772193946158 103.291163554823 54.6367198186464 15.2643848568371 -3.4e+38 -3.4e+38 -3.4e+38 -3.4e+38 -3.4e+38 -3.4e+38 -3.4e+38 216.918861372121 345.402685604983 423.112539285511 151.223012004775 -3.4e+38 -3.4e+38 -3.4e+38 62.6807557522529 124.507996311932 257.33718406363 273.51382640029 152.429718168802 178.237925923091 188.674480730407 115.040689434421 93.3217713754472 8.82858298959527 309.723852579979 415.479014566517 519.060560539165 546.546311946208 589.62682286494 562.554571055238 598.145182962998
102.036083420817 142.7807370904 165.957694862767 87.3199975486731 141.868998691705 225.097690140041 156.928502570171 302.504273896506 575.56209975775 1352.48548652028 735.124219015835 475.80369619156 513.355335282347 366.795021664496 203.788893355106 13.3814910988617 -3.4e+38 -3.4e+38 -3.4e+38 -3.4e+38 -3.4e+38 -3.4e+38 14.6518323781572 1 15.485445502643 28.8042797530389 21.5386080031186 114.190793285114 251.231264834453 1 26.6556139627928 -3.4e+38 372.089149203557 468.132989048021 -3.4e+38 -3.4e+38 -3.4e+38 -3.4e+38 14.8516961907799 168.847889952349 187.778483908738 214.072052712423 321.649276922236 182.28146423913 181.931984281235 127.036307195979 92.5280489812189 85.845112431566 14.0388315329721 54.4581339727572 27.6501897044138 15.9353095064934 -3.4e+38 -3.4e+38 -3.4e+38 -3.4e+38 -3.4e+38 28.5124132024358 37.160660760919 36.3004020817266 -3.4e+38 -3.4e+38 153.756362435413 17.5086769309513 36.1819942826119 -3.4e+38 -3.4e+38 -3.4e+38 -3.4e+38 21.0301014076181 345.421225362086 137.899715109829 18.3980783735082 -3.4e+38 -3.4e+38 -3.4e+38 -3.4e+38 -3.4e+38 29.881541316844 18.87833739983 362.023184844408 369.331847671004 372.682804594883
654.02910032003 600.370062567442 744.468475980242 761.442948884854 939.49991031916 833.771259175065 1196.06323607024 1515.83044706749 1170.84602410123 1196.52264775547 1187.87875473229 1287.75406884939 663.500014547387 733.451072012258 506.929475997852 524.140928705655 733.396969902725 493.187920949823 236.173165238547 8.81440883872076 14.3642340782389 79.1197955198628 87.3818302214681 220.482446922398 150.075480078654 138.019369535304 90.0041443277073 213.374288011998 147.709069814132 248.525861445037 298.769885064126 433.137452907456 424.730477621327 725.864043400719 663.813089654991 580.54036688558 323.032745290809 243.580162218588 183.14879123296 94.9569798416212 59.0672617955623 -3.4e+38 2.22900771591281 -3.4e+38 -3.4e+38 -3.4e+38 -3.4e+38 54.6982394247867 -3.4e+38 56.2983042380864 34.5780671315455 -3.4e+38 -3.4e+38 -3.4e+38 -3.4e+38 -3.4e+38 -3.4e+38 5.91534670092306 35.5239807038665 -3.4e+38 -3.4e+38 6.77571112744271 119.997818037779 260.63033931831 35 103.150215308307 157.198023705063 -3.4e+38 -3.4e+38 253.842687907176 323.203242495588 239.446827521212 -3.4e+38 -3.4e+38 -3.4e+38 -3.4e+38 -3.4e+38 -3.4e+38 -3.4e+38 -3.4e+38 -3.4e+38 29.6119939441088 168.825773132445
1495.54966411731 950.547462703941 874.305710531213 937.832971203397 763.385349636785 881.942384311842 594.295180814852 886.05782062813 456.09407429434 661.898660270314 467.518927308324 443.008289954843 347.76342845068 354.785871057306 345.666234639215 336.154978269885 401.289907329985 654.905264487711 1138.36250129305 333.628676075065 23.7794044521656 97.794303899405 233.287353753749 61.473678720885 235.645676330847 198.691321303724 260.384219805691 242.760995710903 244 247.899670293068 279.565647204406 325.920486573 346.310556691373 455.230816250453 414.58069917148 396.574981650814 435.859991057626 250.498689467912 287.081037293102 191.252908159059 335.410416106736 351.234863557015 346.652698267817 268.448614923987 243.316737412679 172.546512103437 58.8911335210044 140.23915868389 151.495446857216 125.736909194808 93.6307017212706 68.5445833495184 64.5023595953062 45.9689342455422 36.7560533988098 40.751881201557 36.5493777886771 40.3534048554268 3.10126563321105 -3.4e+38 209.273030124442 174.964458687958 352.729057149387 217.973471268023 364.885413802396 314.978501741497 383.641286092077 -3.4e+38 -3.4e+38 395.463647694621 351.227408210682 270.598504913828 234.585497465321 78.686208353725 -3.4e+38 -3.4e+38 -3.4e+38 -3.4e+38 39.1722263297115 10.0240159021719 -3.4e+38 -3.4e+38 -3.4e+38
372.584357094933 206.520258886465 170.588758914959 227.254951670876 589.15374687071 535.788855752296 217.292216180828 203.560064478815 115.951089411763 129.794837603716 145.533922555654 256.543462265553 210.737795681403 439.487112772398 554.748824429177 559.54056641056 359.703720998452 399.948587149245 622.307108156035 574.26369391079 467.531951263409 98.609213500861 118.055364221496 113.20630260227 80.3468039487693 135.487757709493 210.701275483417 194.625846712916 172.177011043156 301.627008364399 332.680709429613 332.141125790052 157 156 156 324.418180328815 349.836790832214 215.688867888088 408.412872163741 511.403706954478 458.250780645379 427.296260723066 480.097013546096 548.908298702517 437.961763422637 369.685454321468 494.598080536945 50.8243344058934 310.881699858044 296.540867418327 239.272109956971 223.087598549001 180.196517660322 181.599481785283 197.06497611561 163.028455248034 148.306074037168 148.2319864806 92.4410977936146 105.50750616613 349.712447336636 338.180164795381 346.933436209948 262.759206485658 487.751454448791 319.268777026336 440.031070770862 214.779860275887 -3.4e+38 -3.4e+38 205.68686319941 143.006917063402 -3.4e+38 -3.4e+38 -3.4e+38 -3.4e+38 -3.4e+38 -3.4e+38 -3.4e+38 -3.4e+38 -3.4e+38 1.05600042376156 28.4395634144033
337.870963701784 504.262538553352 516.601864895223 475.819216490561 109.0809966766 371.768912989314 322.751265579556 550.919210036969 1136.31196990419 1049.53433386529 225.558113435233 549.034424922282 622.26788453334 792.636079445024 924.622994522616 1173.35609755095 747.034913573812 1051.14775608687 733.498951997197 475.127018848366 971.340223131135 514.149892156832 1061.14956542166 775.482779938106 534.448083087696 241.573252375274 97.650298674173 239.990942777024 164.177927653752 271.411589074783 217.690654832519 235.201186023992 152 155 404.115221608178 257.359774081966 182.020847591432 276.952431529536 381.882354925888 432.559556278601 399.02529316834 474.284981829279 461.175307779175 518.22099050733 449.73869133676 470.805877937525 455.937813548233 336.366726708792 320.41744535702 331.265568608059 297.455830602907 220.086732888331 184.829701056549 189.046384687963 180.634483116988 212.472937559073 149.032257863993 213.312389787658 180.630197302728 167.830893323545 262.216245549111 199.388559106993 294.95935515105 363.811244285842 311.914845202839 311.584810250301 -3.4e+38 143.309187668095 -3.4e+38 36.5700920746975 -3.4e+38 -3.4e+38 -3.4e+38 -3.4e+38 -3.4e+38 -3.4e+38 -3.4e+38 -3.4e+38 -3.4e+38 -3.4e+38 -3.4e+38 2.32256096119346 127.279215315196
127.85386864486 108.396005515373 254.084135938748 255.669826216045 219.139035044658 129.298364568718 138.778234245693 180.259443208424 229.104130223768 753.026760638055 567.304006139039 996.118027691604 761.712624224461 1033.16849761436 321.686282723717 907.989474348241 1633.00197696203 1520.39151007048 1593.25379650067 1280.51332204901 1281.86289713267 1432.6143298394 1627.74658826539 1215.80559825333 1859.26464726074 1955.56073645289 1716.91406752515 1395.04306096731 631.310093823398 387.582942975781 377.493606725415 429.802776186234 234.495251999681 241.106656341633 358.632666016279 371.318177573665 373.464596879967 198 300.277643514143 373.95462900859 403.153012548415 428.970465787598 433.90271557778 458.868436498382 405 437.74966426325 357.2195827792 377.688544553305 378.414463600289 350.115451676829 233.484767188911 265.745308544852 178.138094799465 83.8930456003559 173.233204156008 151.58624060975 84.7175297634664 170.218176394061 92.4090513356584 96.2060275549464 72.3047956692104 116.60907033379 114.663204595399 182.176137872675 67.5647696455978 116.621832872989 148.224339512193 -3.4e+38 -3.4e+38 58.1942732743131 261.925354787228 268.791511808417 297.105729643451 -3.4e+38 -3.4e+38 -3.4e+38 -3.4e+38 287.324858091116 190.139064765579 -3.4e+38 -3.4e+38 -3.4e+38 207.160802330568
699.018616259319 176.168959641818 303.747344412857 410.766764486022 1024.09198070008 1601.09553196868 1426.40175306212 1294.48920771115 1773.13255430776 2349.6532587061 1709.53557736404 701.34180055537 729.531667752911 745.93887874415 729.020194945722 519.476435126175 851.821078375443 990.73748219896 886.401027925199 1313.86135444918 846.575917924018 986.658609389264 1123.51203115219 1312.73821298185 1674.41161774523 1699.46189090412 993.763712578358 1609.57942518716 1088.7514442832 616.207466213572 326.811365466067 230.384720363061 489.157083507594 378.118935014817 307.503292355643 332.729551314692 279.745712008116 304.149831122644 213.259714180325 267.01491254405 339.484624328633 395.002576124456 439.901434550736 439 424.301731137162 438.858054587073 392.797359194127 363.287401477601 392.344921841927 330.421893581852 199.403331187579 380.714217094062 338.556443978381 276.628103233528 264.757773851547 281.851694863853 259.860885701602 117.5761904133 129.560762661762 182.419739151407 109.703328814215 60.4801417113331 26.6773721542417 60.9373620149872 -3.4e+38 -3.4e+38 -3.4e+38 -3.4e+38 -3.4e+38 106.575094631582 12.1023404614751 -3.4e+38 -3.4e+38 -3.4e+38 -3.4e+38 -3.4e+38 4.75509518969673 -3.4e+38 -3.4e+38 -3.4e+38 -3.4e+38 -3.4e+38 -3.4e+38
261.31893126923 341.699054184013 1106.74516573447 638.374818457962 408.709114464826 983.912198912929 1073.20293257066 852.952326716721 791.987266169796 582.197190784083 753.717145070979 924.73863383551 1299.11246085294 673.732441075293 760.516013296071 624.461455881949 1376.4956112939 1157.39389864249 825.859898790988 679.978589649244 1643.96359925412 1358.89323077702 1200.19216852197 1145.37258412697 1367.64593192296 1493.35633032633 1520.07143353017 1060.70864719492 1568.39505626294 1458.32977025402 628.161508532457 115.354593190508 377.47458766464 220.170129333097 321.948333344931 345.18595317099 231.882474054325 274.492696962874 258.483210861979 163 207.147045455149 255.065013187336 299.165292464586 237.099500401841 166.113170287141 373.057142770161 355.55013696509 408.442052722766 369.769624562732 360.638066713902 301.025064141744 323.416138323437 282.306265796705 297.503999846236 273.031423530966 310.645194960507 179.71293264852 148 186.729242885903 116.502330725321 60.1303092788881 31.0229857362185 -3.4e+38 -3.4e+38 -3.4e+38 -3.4e+38 -3.4e+38 -3.4e+38 -3.4e+38 -3.4e+38 -3.4e+38 47.9099825583018 25.6826624605046 -3.4e+38 -3.4e+38 -3.4e+38 -3.4e+38 327.797705183574 -3.4e+38 -3.4e+38 -3.4e+38 -3.4e+38 -3.4e+38
417.668807241583 1319.51549119773 2575.56129982678 304 10.2753599045933 2.65676544637978 1165.60233082114 2597.92826597112 1786.08930900041 846.112164898002 634.870750764555 1115.13403411689 1608.98265070368 2684.72818102877 1704.45669979399 1441.51554304648 1490.05742292362 1307.41917256495 1117.22322077821 859.959200896157 901.121509630887 816.102891834094 1295.0683270636 1232.0281447612 1317.66883233385 1006.90193330651 1648.09971969808 1849.59578925668 1287.49033985867 612.534698049049 1454.63790199853 400.236379945021 322.363942637521 190.729728578895 160.463620082187 225.396912786524 197.178451488017 157.230801221991 209.136806932493 156 156 160 170.323173925066 251.754798589566 365.136388235279 341.456368631746 412.89573313077 440.463196023668 445.599188361849 385 379.273524471333 339.197752554359 346.549321905652 297 278 347.175457182407 300.554803013474 183 181.427741160091 108.02423582556 38.7885992661685 -3.4e+38 -3.4e+38 -3.4e+38 -3.4e+38 -3.4e+38 -3.4e+38 -3.4e+38 -3.4e+38 -3.4e+38 -3.4e+38 -3.4e+38 -3.4e+38 -3.4e+38 -3.4e+38 -3.4e+38 -3.4e+38 20.8924624441855 181.904699541201 398.245789475514 450.714208999739 533.760766378461 479.876557745491
743.403538721841 1132.87778646559 884.82762285496 -3.4e+38 107.243860497166 1099.82895910535 578.496355139013 -3.4e+38 -3.4e+38 24.5576516513123 546.115420498361 970.896393480789 1089.6604186291 1858.10811011677 2305.35247399755 1556.77980374786 1866.36228577444 1411.03164392496 1353.51065080959 1636.88077113511 724.698165736022 997.084328066779 1109.43775511941 1606.18606836986 1560.95862689184 767.783110335135 1051.18479338807 758.605692128103 1102.26516232081 892.807979587935 1512.55754878197 286.109703674019 560.291807048393 510.146313386142 607.691412045451 370.741053017994 292.289909140953 269 281.072340012673 258.948910497571 272.297972777886 184.54703492312 166.274464693733 244.655944167708 279.48799352082 349.45795372083 444.759001407381 490.8359039367 454.250638276738 441.817073778385 374.943318849241 385.93309594552 332.571346250245 400.136091501895 348.999818272056 275.749229822264 300.361524107501 163.138770086104 137.645571704801 71.2271839244329 -3.4e+38 -3.4e+38 -3.4e+38 -3.4e+38 -3.4e+38 -3.4e+38 -3.4e+38 -3.4e+38 -3.4e+38 -3.4e+38 -3.4e+38 -3.4e+38 -3.4e+38 -3.4e+38 -3.4e+38 -3.4e+38 -3.4e+38 23.4172999516968 88.3760652067266 215.690104224853 309.848698374494 290.384665851674 339.036114287729
89.5995895071972 -3.4e+38 -3.4e+38 -3.4e+38 29.9390694468573 -3.4e+38 -3.4e+38 -3.4e+38 -3.4e+38 -3.4e+38 -3.4e+38 -3.4e+38 -3.4e+38 -3.4e+38 -3.4e+38 8.98562628454436 515.493463719492 1613.81332366697 738.08231182562 1307.31018033649 921.23070665636 1422.03280010566 1585.42112457387 1330.86846320403 1347.6281946413 1582.8831240638 1125.63695080102 688.762739234601 887.165380806577 1127.39896059117 594.483912403089 382.077007036563 683.667794651571 523.373699335099 476.106016683332 761.439671916423 608.130436448473 334.180545262674 393.075031543138 814.978608367611 728.722121771249 293.43671976352 293.001464333342 213 311.930015915041 233 286.528580974296 453.048201243867 450.372977515964 450.302694868073 382.998588302602 423.644853074006 401.868003102866 374.960816570304 309.865397294179 321.709287940246 297.950224728102 291.69325556224 152.958201593955 79.7110458780245 -3.4e+38 -3.4e+38 -3.4e+38 -3.4e+38 -3.4e+38 -3.4e+38 -3.4e+38 -3.4e+38 -3.4e+38 -3.4e+38 -3.4e+38 -3.4e+38 -3.4e+38 -3.4e+38 -3.4e+38 -3.4e+38 -3.4e+38 5.41554493444539 84.6798604430877 122.476833539009 138 187.906200948173 250.871809324713
514.421175910476 -3.4e+38 125.441956080388 -3.4e+38 -3.4e+38 -3.4e+38 -3.4e+38 -3.4e+38 -3.4e+38 -3.4e+38 -3.4e+38 -3.4e+38 -3.4e+38 -3.4e+38 -3.4e+38 -3.4e+38 -3.4e+38 -3.4e+38 192.315883846443 21.1596675951945 1259.94469506673 1289.34113094673 785.394370653529 1662.74681257459 1344.1346860121 1526.71860637046 1452.16735112665 1233.11199551005 1716.66167281976 1793.537514642 1488.27719319037 744.522069042047 485.785873285688 441.975615312704 391.639105296531 574.590084445257 399.037315200981 367.526199026366 305.699472830846 299.394526512221 243.434001418123 238.729391353953 227.830276292111 231.473491489618 245.21666201554 345.403639890499 446.952387549181 494.79864747481 448.625312877258 391.430478449378 410.879548547384 456.689053658533 435.382009200636 372.656410516455 388.283384019121 324.304057875261 258.96299802221 298.055741272799 180.743493202314 91.5626195645785 30.3775023589387 24.3031209494513 -3.4e+38 -3.4e+38 -3.4e+38 -3.4e+38 -3.4e+38 -3.4e+38 -3.4e+38 -3.4e+38 -3.4e+38 -3.4e+38 -3.4e+38 -3.4e+38 -3.4e+38 -3.4e+38 -3.4e+38 65.1453765923861 123.076162774598 163.257334878931 176.970177151695 274.193675595997 258.059191897877
65.045926617259 653.442430162371 194.40176874775 -3.4e+38 -3.4e+38 -3.4e+38 -3.4e+38 -3.4e+38 -3.4e+38 -3.4e+38 -3.4e+38 -3.4e+38 -3.4e+38 -3.4e+38 -3.4e+38 -3.4e+38 -3.4e+38 -3.4e+38 -3.4e+38 192.493593569916 18.7574038007097 132.958926694863 2058.89863225103 1803.99719863724 1130.15836526531 1131.72690679472 1901.24333925529 1741.01977752388 1755.5442983836 1387.21635826418 1691.82847137401 1739.24464588367 1060.15927121412 766.430454878768 786.383565967072 797.067587122601 811.03879802532 640.148016944943 465.029733602677 429.717537168462 520.415213805461 680.51942546476 699.172625791844 275.055111211828 468.070077960069 536.846190963242 503.990916751565 532.964599667019 492.76902981017 542.152341002834 468.978035231265 448.635754049862 339 356.337114050266 358.657052072291 316.756382674926 270 263.709310359549 215.067498125975 203.388553940562 152.111087779524 59 1.38821305990221 -3.4e+38 -3.4e+38 -3.4e+38 -3.4e+38 -3.4e+38 -3.4e+38 -3.4e+38 -3.4e+38 -3.4e+38 -3.4e+38 -3.4e+38 -3.4e+38 -3.4e+38 -3.4e+38 -3.4e+38 147.723910769662 211.296180846516 261.672931440003 307.413990725546 321.834174708548
1 -3.4e+38 -3.4e+38 -3.4e+38 -3.4e+38 -3.4e+38 -3.4e+38 -3.4e+38 -3.4e+38 -3.4e+38 -3.4e+38 -3.4e+38 -3.4e+38 -3.4e+38 -3.4e+38 -3.4e+38 -3.4e+38 -3.4e+38 -3.4e+38 -3.4e+38 -3.4e+38 296.677141892045 -3.4e+38 1250.66405797368 476.562480579929 647.043004170711 1411.21766973118 825.434014650717 1746.98138113705 1299.61987134772 684 1805.4626004553 895.287619045748 721.215822770269 668.84583695834 695.231595861749 879.058435407212 603.975115889775 564.632439059157 539.51051911 695.004654511803 536.84237277129 456.370676705539 442.492663613251 449 451.02130077973 431.731428122965 444.519779375374 523.154009328468 520.440390666358 436.515907874096 406.72428367097 363.734475134143 372.865000435979 303.976446853366 272.675491216445 304.983063877178 273.853212551611 210.74756118302 152.582639337605 122.316863077374 89.0034037522851 81.0820646607137 99.1401723063044 79.9419252693292 49.8672929974341 21 -3.4e+38 -3.4e+38 -3.4e+38 -3.4e+38 -3.4e+38 -3.4e+38 -3.4e+38 -3.4e+38 -3.4e+38 -3.4e+38 -3.4e+38 122.951943213825 229.798942618346 247.821686865417 251 372.525814471795
-3.4e+38 -3.4e+38 -3.4e+38 -3.4e+38 -3.4e+38 -3.4e+38 -3.4e+38 -3.4e+38 -3.4e+38 -3.4e+38 -3.4e+38 -3.4e+38 -3.4e+38 -3.4e+38 -3.4e+38 -3.4e+38 -3.4e+38 -3.4e+38 -3.4e+38 -3.4e+38 -3.4e+38 152.394264374486 13.1741547046039 -3.4e+38 487.608857310139 507.607043746431 1556.22462426762 1772.35829922905 992.229333879506 1107.32653154757 1478.085265581 719.063404701782 727.783008691773 971.246407696018 949.193910745282 826.456400137099 705.311268321987 575.257220225918 581.274160465091 581.9304612955 918.482001508951 704.002453517355 674.427619689948 661.406467044484 586.740015107141 613.158327711908 440.569881214814 457.154102115555 391.020708300399 421.170477309312 341.514605718222 406.257596096168 320.490445519673 335.71105979227 302.193176535572 298.729008177413 241.941230393877 182.21478009812 207.065021820245 194.345622957923 154.605635944147 156.030390350854 122.947371704672 99 122.66892157877 120 79.6709009156842 83.5151547671892 57.5888400750076 -3.4e+38 -3.4e+38 -3.4e+38 -3.4e+38 -3.4e+38 -3.4e+38 -3.4e+38 -3.4e+38 -3.4e+38 257.446128433818 274.811507757484 338.702071309714 344.551276400907 483.780367628502
-3.4e+38 -3.4e+38 -3.4e+38 -3.4e+38 -3.4e+38 -3.4e+38 -3.4e+38 -3.4e+38 -3.4e+38 -3.4e+38 -3.4e+38 -3.4e+38 -3.4e+38 -3.4e+38 -3.4e+38 -3.4e+38 -3.4e+38 -3.4e+38 -3.4e+38 -3.4e+38 -3.4e+38 -3.4e+38 -3.4e+38 -3.4e+38 -3.4e+38 873.259373909642 151.830498080635 1881.5035718252 848.818314948927 1128.9950901611 712 798.625549680716 913.985054606325 1478.70039821318 1341.42588733118 1363.46227705601 915.614924196562 842.02323984837 859.530492288117 1022.62479401307 638.611672227711 659.182544336136 648.742619394468 583.301723345693 554.717418176326 579.805593179226 480.708592763959 484.630361528044 607.928306330032 497.789026267101 506.69119759287 346.053207121255 303.738079461335 289.618763011244 284.103420662862 260.237373101316 212.68292951166 219.134607304697 232.89625374855 198.937791669886 189.499282817434 190.806922995872 195.406479133413 200.061423958783 179.304483825912 122.690935311488 155.293422937422 102.01208062128 120 84.391687150199 126.489160092035 65.4792143380602 14.3645372143292 -3.4e+38 -3.4e+38 1.45996903078013 81.5168588860315 132.917287426915 247.084428724016 329.327718513817 393.613926130761 424 437.489189102589
-3.4e+38 -3.4e+38 -3.4e+38 -3.4e+38 -3.4e+38 -3.4e+38 -3.4e+38 -3.4e+38 -3.4e+38 -3.4e+38 -3.4e+38 -3.4e+38 -3.4e+38 -3.4e+38 -3.4e+38 -3.4e+38 -3.4e+38 -3.4e+38 -3.4e+38 -3.4e+38 -3.4e+38 -3.4e+38 258.041035994344 -3.4e+38 -3.4e+38 200.675379693331 1309.28767475987 1226.41168450459 1343.18468020547 1146.73170743215 1006.78015802502 793.884340193754 861.417435876567 1067.53292103607 776.186465326368 2348.38194003277 1825.8137375137 1218.54969426079 927.41191897981 854.331994897341 730 671.213259025226 682 669.052541927856 590.785168206488 611.883940592876 695.252086599331 590.617990867913 515.015802191165 484.394131440851 437.383846961148 315.468198570376 313.737884245801 284.338638065728 253 273 216 234.273131947441 258.449915818395 279.43922246925 251.115824603788 276.418955835761 286.779049008988 264.123406687479 256.581811522954 225.694906513036 196.904128509546 164.139735000383 141.562192770595 117.22600526061 83.5023932750339 59.5056567084069 21.7424521848375 -3.4e+38 -3.4e+38 -3.4e+38 65.4849928240487 184.541611460132 189.045049718163 235.364770535994 350.187261026658 410.700976056971 457.785123417789
-3.4e+38 -3.4e+38 -3.4e+38 -3.4e+38 -3.4e+38 -3.4e+38 -3.4e+38 -3.4e+38 -3.4e+38 -3.4e+38 -3.4e+38 -3.4e+38 -3.4e+38 -3.4e+38 -3.4e+38 -3.4e+38 -3.4e+38 -3.4e+38 -3.4e+38 -3.4e+38 -3.4e+38 -3.4e+38 -3.4e+38 208.750387628758 -3.4e+38 -3.4e+38 198.66742601528 308.676221776816 1693.80207041515 1172.47010750084 1247.68066858236 1103.83903513204 807.510728961375 650.887062701877 1615.74535782611 1668.05111464607 2278.52444445442 1985.3248487038 1987.72751944499 1174.77077615796 964.499718303246 862.625882217487 755.893922437311 731.800747512989 684.533064655246 654.070515972177 695.507610985974 545.475546794024 520.986737170913 549 547.484255146183 529.856043068681 478.175391692001 755.874879873195 273 259.417905826236 216.242599205931 222 255.655177769647 305 356.699794135151 342.469175603562 344.771939124849 345 342.387730537506 313.138744104974 281.077892723021 249.288498676638 177.839669547619 167.376663239299 141.56441065983 60.1330918203184 21.0767924963858 -3.4e+38 -3.4e+38 -3.4e+38 20.0862699897063 181.273070322898 228.71781633404 329.003689526214 410.165792798253 491.988692300578 432.627290937345
-3.4e+38 -3.4e+38 -3.4e+38 -3.4e+38 -3.4e+38 -3.4e+38 -3.4e+38 -3.4e+38 -3.4e+38 -3.4e+38 -3.4e+38 -3.4e+38 -3.4e+38 -3.4e+38 -3.4e+38 -3.4e+38 -3.4e+38 -3.4e+38 -3.4e+38 -3.4e+38 -3.4e+38 -3.4e+38 -3.4e+38 -3.4e+38 -3.4e+38 -3.4e+38 -3.4e+38 214.396189963927 1630.31739359417 2082.99290295057 1891.7368032914 1754.71990029496 1260.57374671094 1116.27005649411 1484.172993281 891.424619770258 695.557512010575 1040.64284722086 1903.14073022605 2454.37388568696 1214.8445171455 907.862856954857 865.44618391306 761.764679033055 756.711589093666 745.058225288826 726.373705425883 573.471431569066 564.901290972739 551.851870094903 605.741651095734 614.780452725137 483.662960223165 603.959665695969 394.680278319325 247.176526814561 243.915796470466 225.283721708683 219.373673332625 305.963082044423 378.787740315231 413.726052619428 426.185897936532 397.970953935398 376.938591836318 361.651832806624 269.000796102521 292.757003178992 198.076649711721 160.139357159188 133.745457642356 59.8950313920244 76.7258709218013 62 1 4.88594153358985 29 225.232711428244 221.684711117947 298.301271555497 354.182608063344 437.233269457808 507.356823415155
-3.4e+38 -3.4e+38 -3.4e+38 -3.4e+38 -3.4e+38 -3.4e+38 -3.4e+38 -3.4e+38 -3.4e+38 -3.4e+38 -3.4e+38 -3.4e+38 -3.4e+38 -3.4e+38 -3.4e+38 -3.4e+38 -3.4e+38 -3.4e+38 -3.4e+38 -3.4e+38 -3.4e+38 -3.4e+38 -3.4e+38 -3.4e+38 -3.4e+38 -3.4e+38 -3.4e+38 316.915990051247 -3.4e+38 511.611103215785 1269.9750445281 1495.60623107947 592.67949594254 1521.67531611667 1417.01546025809 908.442915500011 1519.47805070684 2142.80127385264 2856.17897193172 2153.36640201959 1476.55665298308 994.583855982878 871.734051933788 753.948084821309 692.675419805909 721.667710917311 678.717364431266 750.631360884774 706.202393907642 569.765109685598 595.213051115524 593.389832988212 593.431635038337 453.943242294296 567.044091198512 461.617259503779 247 274 241.653683213315 305 389.593598554882 350.96459283222 393.873504231098 427.712197559185 411.311603417039 363.405481157118 384.896683242092 338.530564049486 303.397387240778 176.029274652145 88.3969178614812 155.054905628791 87.179056641228 58.1069879514635 216.879849072849 187.965313931886 232.029884516189 269.170764222631 267.946678434195 352.431818983317 390.943593102528 456.647336854623 534.414500772167
-3.4e+38 -3.4e+38 -3.4e+38 -3.4e+38 -3.4e+38 -3.4e+38 -3.4e+38 -3.4e+38 -3.4e+38 -3.4e+38 -3.4e+38 -3.4e+38 -3.4e+38 -3.4e+38 -3.4e+38 -3.4e+38 -3.4e+38 -3.4e+38 -3.4e+38 -3.4e+38 -3.4e+38 -3.4e+38 -3.4e+38 -3.4e+38 -3.4e+38 -3.4e+38 -3.4e+38 -3.4e+38 113.005029105316 1297.77002233484 -3.4e+38 209.059409041033 444.150678181238 765.206818409654 725.278064541337 933.03043496571 1143.03174966516 1128.4076323042 2008.56955017449 865.652756016296 1564.29265247203 1183.86207342226 929.643123936746 848.219013953021 1104.9824453046 1059.98385856942 991.845503910519 848.819900062455 782.635565470469 761.704030374926 665.225948761321 597.389123599023 588.600347382484 548.466663113504 420.797320828441 408.928568736624 453.922108758635 239 282.917422831784 335.499474214477 332.795140058952 353.25847170869 402.941820927636 439.00043433427 464.147483308043 437.966774008836 307.900028029618 423.792071892417 347.858941015609 315.307691856313 286.599870637881 260.712783617024 214.159154017725 213.793184730564 268.894203121469 259.735099853527 306.132803688004 280.470010917627 271.29294559237 338.688439327875 391.253321592494 437.817188201244 356.054018532004
-3.4e+38 -3.4e+38 -3.4e+38 -3.4e+38 -3.4e+38 -3.4e+38 -3.4e+38 -3.4e+38 -3.4e+38 -3.4e+38 -3.4e+38 -3.4e+38 -3.4e+38 -3.4e+38 -3.4e+38 -3.4e+38 -3.4e+38 -3.4e+38 -3.4e+38 -3.4e+38 -3.4e+38 -3.4e+38 -3.4e+38 -3.4e+38 -3.4e+38 -3.4e+38 -3.4e+38 -3.4e+38 -3.4e+38 -3.4e+38 -3.4e+38 180.425477808879 -3.4e+38 90.2935070369248 2147.85783998015 287.193485308865 1347.36322866686 1388.75209342477 1064.3675223036 969.411720160015 1026.16872372831 1595.60811516782 1207.40492732494 975 938.202315378429 858.518065234277 789.692913341455 689.789819930169 806.967794409196 822.118180391955 593.05327203577 638.892023153688 704.425854039109 518 442.432135345678 472.591142954048 470.723932784303 256.763755060995 318.078198185915 365.993410390575 346.102678345422 350.060545834257 374.417840909629 395.613718963608 483.004442980426 427.745935482924 199.067311170047 184 184 389.747999572494 359.136774168563 350.01048755891 329.865705272403 275.490438716865 268.482447025866 301.599743433789 339.653393635684 328.148816006247 421.443792402853 395.895906177703 386 589.637869711766 345.524895521912
-3.4e+38 -3.4e+38 -3.4e+38 -3.4e+38 -3.4e+38 -3.4e+38 -3.4e+38 -3.4e+38 -3.4e+38 -3.4e+38 -3.4e+38 -3.4e+38 -3.4e+38 -3.4e+38 -3.4e+38 -3.4e+38 -3.4e+38 -3.4e+38 -3.4e+38 -3.4e+38 -3.4e+38 -3.4e+38 -3.4e+38 -3.4e+38 -3.4e+38 -3.4e+38 -3.4e+38 -3.4e+38 -3.4e+38 -3.4e+38 -3.4e+38 1109.63326168334 -3.4e+38 1269.10980261763 582.200541142585 399.849174647162 659.517527208379 708.998366761532 894.166624312689 1549.04295074876 1285.72400064974 1884.04461411643 1383.05628896099 1048.37826219084 1470.0104192749 988.476549906526 882.369022812328 977.513140271495 759.477935566474 773.492572520122 739.917905427636 709.019960140349 634.751591043991 597.600953653534 579 502.44394161766 444.278441334043 323.880780700349 280.770474656215 474.812290532006 394.889591601643 425.411939339633 495.146989895181 585.728935948193 183 183 183 183 183 183 411.934081175022 495.976746027531 427.380979001906 381.579200652833 451.764568838628 190.574705191337 318.586452767332 356.189200611778 381.188431077679 370.823343895968 453.15886373593 450.381534389344 375.197512964003
-3.4e+38 -3.4e+38 -3.4e+38 -3.4e+38 -3.4e+38 -3.4e+38 -3.4e+38 -3.4e+38 -3.4e+38 -3.4e+38 -3.4e+38 -3.4e+38 -3.4e+38 -3.4e+38 -3.4e+38 -3.4e+38 -3.4e+38 -3.4e+38 -3.4e+38 -3.4e+38 -3.4e+38 -3.4e+38 -3.4e+38 -3.4e+38 -3.4e+38 -3.4e+38 -3.4e+38 -3.4e+38 -3.4e+38 -3.4e+38 -3.4e+38 363.207732449942 329.698137107988 1719.68627692796 304.668735261317 170.88545026878 390.631779041218 655.655958012166 383.768634447414 1336.72834895729 1608.37418938376 1785.44561899103 1896.45468874151 1206.87275775446 1938.76589635668 1277.53965232371 1015.52579411146 941.466072623975 914.369315213619 810.356473925803 850.1008718368 840.345556861698 799.773922086109 696.966844253829 520.124543786123 581.699319677569 426.441058355714 319.225851328697 298.923499019547 405.010647281518 414.465322581378 381.439137461645 303.168725224756 369.036699914236 320.721241277308 417.747490220356 510.129880130216 405.416715715754 259.728136467672 239 198.693313961106 308.073192345019 418.600581824565 367.366121650083 221.405951625015 353.583531005173 350.352846405623 372.725995975358 302.882522251177 228.020688003156 462.160403123993 464.775510802002 51.1439129307214
-3.4e+38 -3.4e+38 -3.4e+38 -3.4e+38 -3.4e+38 -3.4e+38 -3.4e+38 -3.4e+38 -3.4e+38 -3.4e+38 -3.4e+38 -3.4e+38 -3.4e+38 -3.4e+38 -3.4e+38 -3.4e+38 -3.4e+38 -3.4e+38 -3.4e+38 -3.4e+38 -3.4e+38 -3.4e+38 -3.4e+38 -3.4e+38 -3.4e+38 -3.4e+38 -3.4e+38 -3.4e+38 -3.4e+38 -3.4e+38 -3.4e+38 700.15744579455 110.604078977416 1226.84990974375 474.162820921277 600.518278353284 1178.73667783688 1268.09456509666 1650.30701295099 1780.94143623233 1954.48353343547 1896.25404607542 1671.90720655583 2069.37733330532 2264.83907774621 1361.72289823913 1216.97310503124 1033.79066143363 1218.68406145526 1037.40083095634 1030.38115867613 913.996161250981 831.086836445258 701 559.35624253117 570.289174183793 404.109202638321 554.017728603376 346.997214298254 408.435508452334 363.03294579204 297.141274288588 367.288187691999 499.091947675874 428.180003227079 476.459471901808 424.946438694004 230.060641406985 176 176 187.170788053151 176 176 177 177 334.585151013744 484.310279506625 364.965620283652 77.6156366970186 52.9889947161318 63.9900382423824 18.9329698994149 175.722434600129
-3.4e+38 -3.4e+38 -3.4e+38 -3.4e+38 -3.4e+38 -3.4e+38 -3.4e+38 -3.4e+38 -3.4e+38 -3.4e+38 -3.4e+38 -3.4e+38 -3.4e+38 -3.4e+38 -3.4e+38 -3.4e+38 -3.4e+38 -3.4e+38 -3.4e+38 -3.4e+38 -3.4e+38 -3.4e+38 -3.4e+38 -3.4e+38 -3.4e+38 -3.4e+38 -3.4e+38 -3.4e+38 -3.4e+38 -3.4e+38 -3.4e+38 495.194229241214 471.88396057049 1099.90464586624 1690.55164558831 1001.43801520052 1815.91479027049 1311.31652035335 1005.31303833113 2334.03373983317 2611.31493392411 2655.9576883862 2353.25526085877 2227.53119892484 2549.46647609105 2113.37803079549 1416.75824182936 2703.04005317209 1385.75947681337 1280 1723.5695739493 983.442549985525 810.867939704708 657.987187523749 544.385040266292 558.416903959555 409.08365615209 548.241804060627 557.125057621027 320.876085153807 315.560410084461 333.14905761979 310.106992493712 340.01731704298 310.853043904422 331.018278083439 230.876990092534 209.302207181847 176 290.514546731142 356.793051736852 237.053461709015 176 176 260.776446272912 278.07272618325 253.005324152447 191.175159681973 151.26875143917 94.2289151338772 484.60169327868 153.529999408838 440.158713125125
-3.4e+38 -3.4e+38 -3.4e+38 -3.4e+38 -3.4e+38 -3.4e+38 -3.4e+38 -3.4e+38 -3.4e+38 -3.4e+38 -3.4e+38 -3.4e+38 -3.4e+38 -3.4e+38 -3.4e+38 -3.4e+38 -3.4e+38 -3.4e+38 -3.4e+38 -3.4e+38 -3.4e+38 -3.4e+38 -3.4e+38 -3.4e+38 -3.4e+38 -3.4e+38 -3.4e+38 -3.4e+38 -3.4e+38 -3.4e+38 -3.4e+38 159.65648693041 1198.60149932289 1327.08793060969 1432.94343662797 1322.74738184028 1604.23476637457 1209.48797084921 796.410335106235 1595.27390762144 2298.56667244826 1707 1585 1878.53580875849 3157.94676914434 2162.63588893823 2172.86296551295 2033.95125414929 1627.83426116423 1476.468551613 1215.63447294076 1236.83318218648 815.455750052663 792.516940946831 671.573125362542 648.208178864586 489.101652848495 429.88484530763 440.636292542697 471.146386104456 382.59439632431 390.774259230412 394.819384467198 319.862112999388 333.909416278191 261.618294779481 290.878774219095 176 176 290.50048951 210.896941772125 213.686438114251 176 276.393183540129 311.537720517703 74 75 75 75 504.691352456958 543.151621703077 186.635533569149 424.542786633324
-3.4e+38 -3.4e+38 -3.4e+38 -3.4e+38 -3.4e+38 -3.4e+38 -3.4e+38 -3.4e+38 -3.4e+38 -3.4e+38 -3.4e+38 -3.4e+38 -3.4e+38 -3.4e+38 -3.4e+38 -3.4e+38 -3.4e+38 -3.4e+38 -3.4e+38 -3.4e+38 -3.4e+38 -3.4e+38 -3.4e+38 -3.4e+38 -3.4e+38 -3.4e+38 -3.4e+38 -3.4e+38 -3.4e+38 -3.4e+38 -3.4e+38 350.497632973609 887.711024952328 1343.63865824923 2014.4112913773 1541.34074165349 1226.71680133534 1495.75630135218 1758.65149173165 1331.7592953002 1219.67274471257 1459.28542163439 1796.17754539784 2116.14357079898 2670.00938858896 2180.19652374546 2220.10350411219 2002.58986970969 1903.35279795562 1723.6561631377 1511.85747466952 1420.07293171455 1188 1059.3479514532 882.030640747028 731 595.660932686171 543.851331656662 334.533222530409 422.47537730019 370.82080112631 348.116539210014 289.139338307291 294.461131483052 255.298487464485 303.378596229591 300.876002741934 176 176 280.775217723708 288.580084197039 288.389879880812 175 175 174 174 457.428009878484 411.870826472355 250.4773144314 444.992743238576 472.735396927623 196.263621483339 204.830848849618
-3.4e+38 -3.4e+38 -3.4e+38 -3.4e+38 -3.4e+38 -3.4e+38 -3.4e+38 -3.4e+38 -3.4e+38 -3.4e+38 -3.4e+38 -3.4e+38 -3.4e+38 -3.4e+38 -3.4e+38 -3.4e+38 -3.4e+38 -3.4e+38 -3.4e+38 -3.4e+38 -3.4e+38 -3.4e+38 -3.4e+38 -3.4e+38 -3.4e+38 -3.4e+38 -3.4e+38 -3.4e+38 -3.4e+38 -3.4e+38 -3.4e+38 594.258584803743 876.156194009871 1593.71715606272 1342.14379652494 1897.14079932609 1233.09880895927 1386.6597467992 1765.87549956152 1900.8593473065 1690.71018195385 1393.15683678607 1974.37611811353 2649.84827235958 2093.24486264494 2025.03984363345 2103.25453432244 2389.84148328422 2488.93431416417 2498.59547256053 1646 1436.08753157963 1142.03373497223 1067.81570095952 887.434178348662 765.892713671181 612.035947851978 471.646469357137 373.851399750733 392.581461588118 373.454825088694 255.117308424766 265.017363783876 176.86914155267 196.470790079981 226.846973689404 210.079050154581 191.58488726964 213.429618741446 281.454729932321 227.236597740094 196.997908508143 174 322.506494608611 323.549277596388 461.402780934729 571.962226848134 552.056296196336 505.781780609174 525.62728179693 258.199482267309 286.863102337203 79.2245360097165
-3.4e+38 -3.4e+38 -3.4e+38 -3.4e+38 -3.4e+38 -3.4e+38 -3.4e+38 -3.4e+38 -3.4e+38 -3.4e+38 -3.4e+38 -3.4e+38 -3.4e+38 -3.4e+38 -3.4e+38 -3.4e+38 -3.4e+38 -3.4e+38 -3.4e+38 -3.4e+38 -3.4e+38 -3.4e+38 -3.4e+38 -3.4e+38 -3.4e+38 -3.4e+38 -3.4e+38 -3.4e+38 -3.4e+38 -3.4e+38 -3.4e+38 1558.70826258661 232.491639527155 2522.45039011937 1577.29057548072 1442.94692014389 1468.77208751744 2177.28523966413 1447.07767623392 2760.55506780957 1700 1286.58939517775 1596.10110071572 1886.27112280518 2856.0997633277 1684.71607524192 2100.97542370707 1893.13691271626 2558.61811750646 2920.80982191508 1430.97845275742 1336.8368840346 1202.02878132799 1011.28722155525 820.243905063498 728.573235044835 588.887708634583 492.888456894076 411.089779666852 330.823173855392 334.241495773397 289.904621021407 288.21508519172 178.381168266479 200.706782386709 194.662750245571 252.759078647761 221.225174561494 228.000334490321 269.012464016111 267 304 352.683697201141 309.339538187042 352.818175176891 333.573836483944 625.126149604405 224.825159708469 259.279504246751 203.960872421526 30.0178451156979 -3.4e+38 -3.4e+38
-3.4e+38 -3.4e+38 -3.4e+38 -3.4e+38 -3.4e+38 -3.4e+38 -3.4e+38 -3.4e+38 -3.4e+38 -3.4e+38 -3.4e+38 -3.4e+38 -3.4e+38 -3.4e+38 -3.4e+38 -3.4e+38 -3.4e+38 -3.4e+38 -3.4e+38 -3.4e+38 -3.4e+38 -3.4e+38 -3.4e+38 -3.4e+38 -3.4e+38 -3.4e+38 -3.4e+38 -3.4e+38 -3.4e+38 -3.4e+38 -3.4e+38 560.505641279297 348.898647086162 131.738729880938 2024.23840275357 1721.00583259627 1196.96932386432 1887.23799031545 1917.81717418589 2075.75814197746 1718.08973222003 1364.13146738161 1447.29785691344 1759.10913670936 1686.39806588319 2214.31191508788 2041.11839893645 2035.20961418324 3377.23788412643 2690.7410673123 1903.73009173212 1637.5787129256 1236.69468960119 1064.69220128718 828.995133992073 638.983643608032 450.96169806923 423.311286151906 424.748499446466 307.302534637672 270.290044591454 232.00718088816 228.575992563962 221.198329180525 195.595440663825 191.2759307358 200.120913269082 172.603065207035 241.094683820497 274 262.227256607539 304 302.485078058461 235.139650009989 346.777353261988 842.804995926843 220.199980878199 467.397672372536 142.71807084413 1 10.5590448472307 -3.4e+38 -3.4e+38
-3.4e+38 -3.4e+38 -3.4e+38 -3.4e+38 -3.4e+38 -3.4e+38 -3.4e+38 -3.4e+38 -3.4e+38 -3.4e+38 -3.4e+38 -3.4e+38 -3.4e+38 -3.4e+38 -3.4e+38 -3.4e+38 -3.4e+38 -3.4e+38 -3.4e+38 -3.4e+38 -3.4e+38 -3.4e+38 -3.4e+38 -3.4e+38 -3.4e+38 -3.4e+38 -3.4e+38 -3.4e+38 -3.4e+38 -3.4e+38 -3.4e+38 -3.4e+38 217.059964857204 3.41341163875372 1206.12003810043 1875.98332120717 1492.03393241858 1657.27845991747 2000.03132629702 1710.27021381307 1869.73362353329 1709.79507393856 2782.37316879844 2694.11611989377 1656.35049964187 1744.5744101503 2694.35225666389 2922.67024813607 2781.63569794701 2454.73811477393 1555.87631750561 1385.44556724758 1192.08404136803 1036.25649500045 854.728200041337 641.775250998032 545.061659082792 450.359287531496 438.840000635311 311.31295812033 289.857704832363 266.107150243249 261.536390629195 234.462679399408 179.42653134476 130.084777343471 138.274305433156 126.420130808612 208.706924635869 211.523871172777 246.274109483628 297.062656309857 217.640326985803 298.046276805537 667.342522346714 769.629740647907 634.38336046699 82.4035410962258 2.8307362192704 12.9504362689097 -3.4e+38 -3.4e+38 -3.4e+38
-3.4e+38 -3.4e+38 -3.4e+38 -3.4e+38 -3.4e+38 -3.4e+38 -3.4e+38 -3.4e+38 -3.4e+38 -3.4e+38 -3.4e+38 -3.4e+38 -3.4e+38 -3.4e+38 -3.4e+38 -3.4e+38 -3.4e+38 -3.4e+38 -3.4e+38 -3.4e+38 -3.4e+38 -3.4e+38 -3.4e+38 -3.4e+38 -3.4e+38 -3.4e+38 -3.4e+38 -3.4e+38 -3.4e+38 -3.4e+38 -3.4e+38 -3.4e+38 -3.4e+38 862.71749750081 62.3478540833654 2504.84236048763 1547.99696810832 2132.21386569986 1553.33562828364 1443.87239053883 1927.66969654558 1986.07856857783 2259.53511784107 1858.56623064589 1445.58375656745 1642.68431283858 2253.72267495328 3380.13559656667 3285.56316735604 2480.27421364454 1875.04039705926 1486.14953789345 1283.91811246176 952.437631589634 834.001727451214 728.500375099906 548 393.513771996918 461.233447798095 294.569891761104 292.474986087582 290.088562961393 351.874541179943 362.73489597072 312.309943115747 112.384127812651 212.576175737011 129.289216739939 194.59962194836 272.3336656456 276.972915341389 240.237130984745 322.347458036244 633.734761495861 822.891359833805 834.876426437625 178.051349667648 60.325978588873 15 -3.4e+38 -3.4e+38 -3.4e+38 -3.4e+38
-3.4e+38 -3.4e+38 -3.4e+38 -3.4e+38 -3.4e+38 -3.4e+38 -3.4e+38 -3.4e+38 -3.4e+38 -3.4e+38 -3.4e+38 -3.4e+38 -3.4e+38 -3.4e+38 -3.4e+38 -3.4e+38 -3.4e+38 -3.4e+38 -3.4e+38 -3.4e+38 -3.4e+38 -3.4e+38 -3.4e+38 -3.4e+38 -3.4e+38 -3.4e+38 -3.4e+38 -3.4e+38 -3.4e+38 -3.4e+38 -3.4e+38 -3.4e+38 -3.4e+38 49.5923249757052 364.14528312841 88.0256920673847 2927.08639422026 1350.20832860402 703.560499190846 989.926325018838 551.717695650202 1695.85301797254 1921.98959751829 1944.87198333175 2131.8387958757 1622.24667210878 1641.48107817086 1976.37186769928 2282.57280096674 3278.63948802293 1836.80352716563 1743.19179921777 1248.51577469502 980.91979911656 853.522375296618 643.011155029815 414.472468521526 305.174086190006 307.445856132632 229.064269684914 319.491992519021 351.907922108219 322.707643205697 195.836152515365 88.2335815916087 88.2151702968598 130.770021303155 162.217316866144 277.80809906849 229.344968757405 462.25498312768 388.357271012468 410.769449070278 856.109279593449 468.898971805463 169.731289379402 105.41712317695 30 5.01913282361254 -3.4e+38 -3.4e+38 -3.4e+38 -3.4e+38
-3.4e+38 -3.4e+38 -3.4e+38 -3.4e+38 -3.4e+38 -3.4e+38 -3.4e+38 -3.4e+38 -3.4e+38 -3.4e+38 -3.4e+38 -3.4e+38 -3.4e+38 -3.4e+38 -3.4e+38 -3.4e+38 -3.4e+38 -3.4e+38 -3.4e+38 -3.4e+38 -3.4e+38 -3.4e+38 -3.4e+38 -3.4e+38 -3.4e+38 -3.4e+38 -3.4e+38 -3.4e+38 -3.4e+38 -3.4e+38 -3.4e+38 -3.4e+38 -3.4e+38 -3.4e+38 375.070564511394 84.1995571243324 1214.44785522896 723.757709578501 1053.41098645232 1253.52922487892 1109.87125700885 1401.10226368836 1727.74721015779 1776.86422061863 1666.37767038291 1997.65185868723 2084.53650534927 2055.09629594828 1859.93310212073 2267.68053360924 1539.67312593843 1226.92321856851 1043.70168283252 1036.53351531657 832.459504047852 601.588136595938 475.171742667675 366.837119593414 275.119364237876 182 196.73582278413 170.131596683764 232.090702905592 161.555526832514 60.4768031951257 95.992364985128 163.473283814649 253.088437998254 241.413418470869 583.486935831866 304.542958106015 904.044511600975 768.380212137787 314.338267001211 215.839998024265 129.270416718786 65.7722674854592 13.0049163028522 1 -3.4e+38 -3.4e+38 -3.4e+38 -3.4e+38
-3.4e+38 -3.4e+38 -3.4e+38 -3.4e+38 -3.4e+38 -3.4e+38 -3.4e+38 -3.4e+38 -3.4e+38 -3.4e+38 -3.4e+38 -3.4e+38 -3.4e+38 -3.4e+38 -3.4e+38 -3.4e+38 -3.4e+38 -3.4e+38 -3.4e+38 -3.4e+38 -3.4e+38 -3.4e+38 -3.4e+38 -3.4e+38 -3.4e+38 -3.4e+38 -3.4e+38 -3.4e+38 -3.4e+38 -3.4e+38 -3.4e+38 -3.4e+38 -3.4e+38 -3.4e+38 36 763.803353760907 612.192195216847 1002.5279849895 897.49987108363 244.953659425867 354.978957143649 1013.26913345673 1840.51632469516 1909.28333465642 1922.82035304504 1871.84851133851 2094.20067646225 1909.48456238943 1805.05729497025 1924.92622529653 1397.32612461154 1376.36177220265 1184.87119923974 984.54650778717 584.344948657775 408.691987823406 341.005106979023 298.278624071292 239.725213048246 173.649062911696 256.85158582058 292.636264646233 115.805914877799 62 53 118.631597420662 112.291924763202 182.195476953342 178.12094942312 408.352762645335 394.296404167733 386.066283977207 248.165533338692 95.7815782273264 103.951402442246 43.5821708075932 36 8.93673353699182 -3.4e+38 -3.4e+38 -3.4e+38 -3.4e+38 -3.4e+38
-3.4e+38 -3.4e+38 -3.4e+38 -3.4e+38 -3.4e+38 -3.4e+38 -3.4e+38 -3.4e+38 -3.4e+38 -3.4e+38 -3.4e+38 -3.4e+38 -3.4e+38 -3.4e+38 -3.4e+38 -3.4e+38 -3.4e+38 -3.4e+38 -3.4e+38 -3.4e+38 -3.4e+38 -3.4e+38 -3.4e+38 -3.4e+38 -3.4e+38 -3.4e+38 -3.4e+38 -3.4e+38 -3.4e+38 -3.4e+38 -3.4e+38 -3.4e+38 -3.4e+38 -3.4e+38 -3.4e+38 -3.4e+38 -3.4e+38 332.579376925838 1417.51749680136 698.169850990171 167.846964039257 487.429417983083 394.472743922643 682.07652965422 1075.90360048083 1851.97268751123 2466.21218125473 1882.4511074664 1677.15549658333 1891.87526975901 1097 1303.7094655171 1080.95759603927 922.207634764363 616.910968012745 429.209382556968 348.85574199446 293.961017569336 242.822241050426 132.382972265945 118.393489889317 87.8174761572403 49.1439986913446 40.9613540817433 31.9424782946816 120.283498079559 59.962889989358 128.320709902709 257.285136924719 389.5560380697 276.694098163018 158.078280582428 153.837190074918 120.439781740915 42.3848339287414 10.1432615485834 -3.4e+38 -3.4e+38 -3.4e+38 -3.4e+38 -3.4e+38 -3.4e+38 -3.4e+38
-3.4e+38 -3.4e+38 -3.4e+38 -3.4e+38 -3.4e+38 -3.4e+38 -3.4e+38 -3.4e+38 -3.4e+38 -3.4e+38 -3.4e+38 -3.4e+38 -3.4e+38 -3.4e+38 -3.4e+38 -3.4e+38 -3.4e+38 -3.4e+38 -3.4e+38 -3.4e+38 -3.4e+38 -3.4e+38 -3.4e+38 -3.4e+38 -3.4e+38 -3.4e+38 -3.4e+38 -3.4e+38 -3.4e+38 -3.4e+38 -3.4e+38 -3.4e+38 -3.4e+38 -3.4e+38 -3.4e+38 -3.4e+38 -3.4e+38 -3.4e+38 834.960551767651 55.7220989747118 62.749539220053 205.827915332984 759.154406786867 630.725314140314 879.91548180596 1068.52660529546 1895.53251855956 1395.20937792436 1821.48787554174 1879.57056968331 1193.67960797394 1149.64249666409 948.293304151994 815.558475953847 703.180197710478 601.519672288517 316.838746501814 284.814998638309 98.8877248936011 182.658695121479 126.161536937595 64.5647110181149 64.3794245568744 24.3621282144573 74.9225226443661 129.037752307996 86.6888605198006 67.1269882729093 116.958066607746 107.377962790724 187.618950044647 76.0069853574303 67.2310072960597 38.5490542811606 1 -3.4e+38 -3.4e+38 -3.4e+38 -3.4e+38 -3.4e+38 -3.4e+38 -3.4e+38 -3.4e+38
-3.4e+38 -3.4e+38 -3.4e+38 -3.4e+38 -3.4e+38 -3.4e+38 -3.4e+38 -3.4e+38 -3.4e+38 -3.4e+38 -3.4e+38 -3.4e+38 -3.4e+38 -3.4e+38 -3.4e+38 -3.4e+38 -3.4e+38 -3.4e+38 -3.4e+38 -3.4e+38 -3.4e+38 -3.4e+38 -3.4e+38 -3.4e+38 -3.4e+38 -3.4e+38 -3.4e+38 -3.4e+38 -3.4e+38 -3.4e+38 -3.4e+38 -3.4e+38 -3.4e+38 -3.4e+38 -3.4e+38 -3.4e+38 -3.4e+38 -3.4e+38 382.602055373791 998.580114143993 -3.4e+38 70.9141810027924 643.33409149215 1084.06940556672 1597.62443157239 1466.15305492222 1367.9053928162 1209.86043971585 1257.39936603133 1451.65502998498 1368.81228216279 787.628592688293 791.742888627662 800.817953100355 581 471.116444159756 502.670983263815 243.561656553202 122.374461505624 131.613828462161 77.1337463542009 108.804234655274 60.0111263838476 8.70810839201119 137.88182481942 83.3490676354534 55.1766130147912 82.1167104090068 86.6551417252451 84.2974655733503 64.6671153899626 116.774866946392 49.689350499072 6 -3.4e+38 -3.4e+38 -3.4e+38 -3.4e+38 -3.4e+38 -3.4e+38 -3.4e+38 -3.4e+38 -3.4e+38
-3.4e+38 -3.4e+38 -3.4e+38 -3.4e+38 -3.4e+38 -3.4e+38 -3.4e+38 -3.4e+38 -3.4e+38 -3.4e+38 -3.4e+38 -3.4e+38 -3.4e+38 -3.4e+38 -3.4e+38 -3.4e+38 -3.4e+38 -3.4e+38 -3.4e+38 -3.4e+38 -3.4e+38 -3.4e+38 -3.4e+38 -3.4e+38 -3.4e+38 -3.4e+38 -3.4e+38 -3.4e+38 -3.4e+38 -3.4e+38 -3.4e+38 -3.4e+38 -3.4e+38 -3.4e+38 -3.4e+38 -3.4e+38 -3.4e+38 -3.4e+38 -3.4e+38 886.156397751262 -3.4e+38 -3.4e+38 194.488649824154 559.532023199481 1254.33585468297 1311.51326917779 1782.34395460851 1465.56139724768 1254.8067085232 1572.49994635241 1336.55351386816 1249.25098002894 1058.51076648914 664.866916970568 705.515644723865 621.323932815784 348.577115500859 176.773672084399 74.6508691355063 100.577548526798 33.6616213187255 29.0381018356269 12.5032146488589 4.43366094773193 10.1838450242002 24.9575988026591 4.31598788281115 13.9131005576108 21.0640190314065 35.319818609575 43.89854009887 40.5149228751965 28.3342478585566 1.40588046030023 -3.4e+38 -3.4e+38 -3.4e+38 -3.4e+38 -3.4e+38 -3.4e+38 -3.4e+38 -3.4e+38 -3.4e+38
-3.4e+38 -3.4e+38 -3.4e+38 -3.4e+38 -3.4e+38 -3.4e+38 -3.4e+38 -3.4e+38 -3.4e+38 -3.4e+38 -3.4e+38 -3.4e+38 -3.4e+38 -3.4e+38 -3.4e+38 -3.4e+38 -3.4e+38 -3.4e+38 -3.4e+38 -3.4e+38 -3.4e+38 -3.4e+38 -3.4e+38 -3.4e+38 -3.4e+38 -3.4e+38 -3.4e+38 -3.4e+38 -3.4e+38 -3.4e+38 -3.4e+38 -3.4e+38 -3.4e+38 -3.4e+38 -3.4e+38 -3.4e+38 -3.4e+38 -3.4e+38 -3.4e+38 -3.4e+38 759.335050422069 176.125770481569 -3.4e+38 341.161858341433 493.820901516435 645.303650664939 1782.91513611381 2055.05520142187 1788.14960128906 1834.00174890194 814.04849270293 1117.79971401084 938.553133463464 448.555423302245 420.37418319682 379.291256628922 233.901702916419 102.411966713006 62.4160105681636 17 -3.4e+38 -3.4e+38 -3.4e+38 -3.4e+38 1 -3.4e+38 -3.4e+38 -3.4e+38 -3.4e+38 -3.4e+38 -3.4e+38 -3.4e+38 25.8690540164509 1 -3.4e+38 -3.4e+38 -3.4e+38 -3.4e+38 -3.4e+38 -3.4e+38 -3.4e+38 -3.4e+38 -3.4e+38
-3.4e+38 -3.4e+38 -3.4e+38 -3.4e+38 -3.4e+38 -3.4e+38 -3.4e+38 -3.4e+38 -3.4e+38 -3.4e+38 -3.4e+38 -3.4e+38 -3.4e+38 -3.4e+38 -3.4e+38 -3.4e+38 -3.4e+38 -3.4e+38 -3.4e+38 -3.4e+38 -3.4e+38 -3.4e+38 -3.4e+38 -3.4e+38 -3.4e+38 -3.4e+38 -3.4e+38 -3.4e+38 -3.4e+38 -3.4e+38 -3.4e+38 -3.4e+38 -3.4e+38 -3.4e+38 -3.4e+38 -3.4e+38 -3.4e+38 -3.4e+38 -3.4e+38 -3.4e+38 -3.4e+38 546.998444657017 -3.4e+38 14.9949278173039 276.193141678929 348.841088623307 1766.40386879822 2098.83401630693 1848.25474519071 1128.47101959191 1467.45801340404 1658.04061609584 1640.78290875795 754.062055720664 274.093404921352 149.197105633635 74.1957050554716 50.2631128974386 1.00066360335643 -3.4e+38 -3.4e+38 -3.4e+38 -3.4e+38 -3.4e+38 -3.4e+38 -3.4e+38 -3.4e+38 -3.4e+38 -3.4e+38 -3.4e+38 -3.4e+38 -3.4e+38 22.0650345272894 42.4055034208572 -3.4e+38 -3.4e+38 -3.4e+38 -3.4e+38 -3.4e+38 -3.4e+38 -3.4e+38 -3.4e+38 -3.4e+38
-3.4e+38 -3.4e+38 -3.4e+38 -3.4e+38 -3.4e+38 -3.4e+38 -3.4e+38 -3.4e+38 -3.4e+38 -3.4e+38 -3.4e+38 -3.4e+38 -3.4e+38 -3.4e+38 -3.4e+38 -3.4e+38 -3.4e+38 -3.4e+38 -3.4e+38 -3.4e+38 -3.4e+38 -3.4e+38 -3.4e+38 -3.4e+38 -3.4e+38 -3.4e+38 -3.4e+38 -3.4e+38 -3.4e+38 -3.4e+38 -3.4e+38 -3.4e+38 -3.4e+38 -3.4e+38 -3.4e+38 -3.4e+38 -3.4e+38 -3.4e+38 -3.4e+38 -3.4e+38 527.642802207008 38.638908771679 523.943246919705 -3.4e+38 1.77843845843784 217.568992033633 533.726629137536 2163.36612027177 1606.34597321639 1324.05192473341 1530.81311084457 1320.29593861343 1322.64765733581 1006.31841703437 253.177732683362 112.096527102174 137.945419381437 4.69716559009743 -3.4e+38 -3.4e+38 -3.4e+38 -3.4e+38 -3.4e+38 -3.4e+38 -3.4e+38 -3.4e+38 -3.4e+38 -3.4e+38 -3.4e+38 -3.4e+38 -3.4e+38 -3.4e+38 1.97338723703076 49.685603436458 7 -3.4e+38 -3.4e+38 -3.4e+38 -3.4e+38 -3.4e+38 -3.4e+38 -3.4e+38 -3.4e+38
-3.4e+38 -3.4e+38 -3.4e+38 -3.4e+38 -3.4e+38 -3.4e+38 -3.4e+38 -3.4e+38 -3.4e+38 -3.4e+38 -3.4e+38 -3.4e+38 -3.4e+38 -3.4e+38 -3.4e+38 -3.4e+38 -3.4e+38 -3.4e+38 -3.4e+38 -3.4e+38 -3.4e+38 -3.4e+38 -3.4e+38 -3.4e+38 -3.4e+38 -3.4e+38 -3.4e+38 -3.4e+38 -3.4e+38 -3.4e+38 -3.4e+38 -3.4e+38 -3.4e+38 -3.4e+38 -3.4e+38 -3.4e+38 -3.4e+38 -3.4e+38 -3.4e+38 -3.4e+38 -3.4e+38 -3.4e+38 221.654966820122 125.323007627438 -3.4e+38 -3.4e+38 189.963289880859 1357.99473955065 2778.25239871529 1875.66964328565 1372.16295886454 1182.9769929862 884.346545517398 1626.10222789153 533.736107785277 139.501263572866 106.26763485256 1.99630540421461 -3.4e+38 -3.4e+38 -3.4e+38 -3.4e+38 -3.4e+38 -3.4e+38 -3.4e+38 -3.4e+38 -3.4e+38 -3.4e+38 -3.4e+38 -3.4e+38 -3.4e+38 -3.4e+38 -3.4e+38 10.3876456741479 4 -3.4e+38 -3.4e+38 -3.4e+38 -3.4e+38 -3.4e+38 -3.4e+38 -3.4e+38 -3.4e+38
-3.4e+38 -3.4e+38 -3.4e+38 -3.4e+38 -3.4e+38 -3.4e+38 -3.4e+38 -3.4e+38 -3.4e+38 -3.4e+38 -3.4e+38 -3.4e+38 -3.4e+38 -3.4e+38 -3.4e+38 -3.4e+38 -3.4e+38 -3.4e+38 -3.4e+38 -3.4e+38 -3.4e+38 -3.4e+38 -3.4e+38 -3.4e+38 -3.4e+38 -3.4e+38 -3.4e+38 -3.4e+38 -3.4e+38 -3.4e+38 -3.4e+38 -3.4e+38 -3.4e+38 -3.4e+38 -3.4e+38 -3.4e+38 -3.4e+38 -3.4e+38 -3.4e+38 -3.4e+38 -3.4e+38 -3.4e+38 -3.4e+38 254.815861808204 -3.4e+38 -3.4e+38 13.0760543104922 420.333036099254 2371.37960333889 2146.58101999298 1795.86528209132 1189.44096144901 1365.56399112817 1370.40152425777 2465.10430812659 188.874029040483 200.57936634332 1.95663020675452 -3.4e+38 -3.4e+38 -3.4e+38 -3.4e+38 -3.4e+38 -3.4e+38 -3.4e+38 -3.4e+38 -3.4e+38 -3.4e+38 -3.4e+38 -3.4e+38 -3.4e+38 -3.4e+38 -3.4e+38 -3.4e+38 2 -3.4e+38 -3.4e+38 -3.4e+38 -3.4e+38 -3.4e+38 -3.4e+38 -3.4e+38 -3.4e+38
-3.4e+38 -3.4e+38 -3.4e+38 -3.4e+38 -3.4e+38 -3.4e+38 -3.4e+38 -3.4e+38 -3.4e+38 -3.4e+38 -3.4e+38 -3.4e+38 -3.4e+38 -3.4e+38 -3.4e+38 -3.4e+38 -3.4e+38 -3.4e+38 -3.4e+38 -3.4e+38 -3.4e+38 -3.4e+38 -3.4e+38 -3.4e+38 -3.4e+38 -3.4e+38 -3.4e+38 -3.4e+38 -3.4e+38 -3.4e+38 -3.4e+38 -3.4e+38 -3.4e+38 -3.4e+38 -3.4e+38 -3.4e+38 -3.4e+38 -3.4e+38 -3.4e+38 -3.4e+38 -3.4e+38 -3.4e+38 -3.4e+38 22.04741694364 -3.4e+38 -3.4e+38 -3.4e+38 1.25726146911048 1030.41466171609 2528.49508853456 2227.00276492409 1904.23719515991 1760.34301654432 2561.03782395756 1868.99611956597 525.855440073363 189.74196402545 -3.4e+38 -3.4e+38 -3.4e+38 -3.4e+38 -3.4e+38 -3.4e+38 -3.4e+38 -3.4e+38 -3.4e+38 -3.4e+38 -3.4e+38 -3.4e+38 -3.4e+38 -3.4e+38 -3.4e+38 -3.4e+38 -3.4e+38 -3.4e+38 -3.4e+38 -3.4e+38 -3.4e+38 -3.4e+38 -3.4e+38 -3.4e+38 -3.4e+38 -3.4e+38
-3.4e+38 -3.4e+38 -3.4e+38 -3.4e+38 -3.4e+38 -3.4e+38 -3.4e+38 -3.4e+38 -3.4e+38 -3.4e+38 -3.4e+38 -3.4e+38 -3.4e+38 -3.4e+38 -3.4e+38 -3.4e+38 -3.4e+38 -3.4e+38 -3.4e+38 -3.4e+38 -3.4e+38 -3.4e+38 -3.4e+38 -3.4e+38 -3.4e+38 -3.4e+38 -3.4e+38 -3.4e+38 -3.4e+38 -3.4e+38 -3.4e+38 -3.4e+38 -3.4e+38 -3.4e+38 -3.4e+38 -3.4e+38 -3.4e+38 -3.4e+38 -3.4e+38 -3.4e+38 -3.4e+38 -3.4e+38 -3.4e+38 -3.4e+38 -3.4e+38 72.597832641741 -3.4e+38 -3.4e+38 28.6069211233939 1946.01773303922 2052.3944614102 2616.80023780414 2027.92078614129 2147.90742377377 1902.80262697649 1559.19416537247 583.846940468245 -3.4e+38 -3.4e+38 -3.4e+38 -3.4e+38 -3.4e+38 -3.4e+38 -3.4e+38 -3.4e+38 -3.4e+38 -3.4e+38 -3.4e+38 -3.4e+38 -3.4e+38 -3.4e+38 -3.4e+38 -3.4e+38 -3.4e+38 -3.4e+38 -3.4e+38 -3.4e+38 -3.4e+38 -3.4e+38 -3.4e+38 -3.4e+38 -3.4e+38 -3.4e+38
-3.4e+38 -3.4e+38 -3.4e+38 -3.4e+38 -3.4e+38 -3.4e+38 -3.4e+38 -3.4e+38 -3.4e+38 -3.4e+38 -3.4e+38 -3.4e+38 -3.4e+38 -3.4e+38 -3.4e+38 -3.4e+38 -3.4e+38 -3.4e+38 -3.4e+38 -3.4e+38 -3.4e+38 -3.4e+38 -3.4e+38 -3.4e+38 -3.4e+38 -3.4e+38 -3.4e+38 -3.4e+38 -3.4e+38 -3.4e+38 -3.4e+38 -3.4e+38 -3.4e+38 -3.4e+38 -3.4e+38 -3.4e+38 -3.4e+38 -3.4e+38 -3.4e+38 -3.4e+38 -3.4e+38 -3.4e+38 -3.4e+38 -3.4e+38 -3.4e+38 -3.4e+38 -3.4e+38 -3.4e+38 -3.4e+38 15.5812718969549 619.21003732419 2232.40019345948 2322.31720141249 2084.70650167677 1631.3628031853 1093.59731735358 31.9402980758819 -3.4e+38 -3.4e+38 -3.4e+38 -3.4e+38 -3.4e+38 -3.4e+38 -3.4e+38 -3.4e+38 -3.4e+38 -3.4e+38 -3.4e+38 -3.4e+38 -3.4e+38 -3.4e+38 52.8061982616135 -3.4e+38 1 43.4496898609763 20.6830820495035 3.40693649301119 -3.4e+38 -3.4e+38 -3.4e+38 -3.4e+38 -3.4e+38 -3.4e+38
