NCOLS 207
NROWS 29
XLLCORNER -68
YLLCORNER -79
CELLSIZE 1 
NODATA_value -9999 
-5000 -4559.99999996903 -1119.99999997404 320.000000003519 1120.00000002997 1120.00000001158 1279.99999999911 839.999999997283 879.999999999108 559.999999992605 199.999999996322 80.0000000037005 -1.93836058315341e-09 -80 -80 -160 -160 -120.000000002944 -440.000000006827 -840.000000013745 -1960.00000000692 -3280.00000002357 -3840.00000000612 -4760.00000000397 -5359.99999999911 -5440.00000000402 -5440 -5400.00000000406 -5399.99999999591 -5360 -5280 -5199.99999999584 -5000.00000000657 -5039.99999999401 -4839.99999999578 -4400.00000000335 -4440.00000000765 -4719.99999999732 -4719.99999999658 -4479.99999999655 -4159.99999998613 -4240.00000000349 -4319.99999999911 -4200.00000000354 -4119.99999999555 -3840 -3559.9999999955 -2999.99999997646 -2240.00000000543 -1360.00000000704 -2719.99999999911 -2360.00000002349 -3119.99999999911 -3319.99999999911 -3360.000000002 -3479.99999999822 -3760.00000000294 -3680 -3760.00000000775 -3799.99999999521 -3799.99999999305 -3800.00000000394 -3600.00000001547 -4080.00000000178 -3119.99999999644 -1480.00000001296 -2640.00000003376 -3840.00000001084 -3999.99999999358 -3959.99999999766 -3960.00000000593 -3959.99999999672 -3640.00000000687 -4000 -3920.00000001451 -4000.00000000089 -4119.99999999482 -3599.99999998886 -2760.00000000178 -2120.00000000614 -2040.00000000438 -2360.00000000612 -2959.99999999907 -3559.99999999466 -3480.00000000804 -3479.99999999102 -3519.99999999549 -3480 -3400.00000000545 -3200.00000001273 -3320.00000000921 -4000.0000000194 -4200.00000001484 -3999.99999998979 -3840.00000000647 -3399.99999999148 -3200.00000000741 -2960.0000000104 -2720.00000000477 -2319.99999999822 -2119.99999999125 -1679.99999999478 -1999.99999999911 -1639.99999999243 -2039.99999999241 -1960.00000000987 -2160.00000000228 -2479.99999999732 -2279.99999998142 -1640.00000000413 -1279.99999997772 -1440.00000004385 -2160.00000002126 -2639.99999999399 -2559.99999998526 -2880.00000000178 -2920.00000000429 -2919.99999998527 -2600.0000000148 -2799.99999998503 -3080.00000001144 -3080 -1719.99999995747 -1240.00000000534 -1199.9999999991 -1359.99999999818 560.000000009038 520.000000004542 -199.999999997323 -280.000000010959 -680.000000018292 -1000.00000000089 -1080 -1240.00000000089 -1680.00000006688 -2880 -2759.99999997834 -2759.99999998391 -2600.00000002274 -2440.00000001891 -2719.99999999605 -3599.99999998096 -3720.00000001155 -3840.00000000089 -3840.00000000089 -3999.9999999802 -3719.99999998916 -2999.99999998269 -2640.000000029 -3680.00000000683 -4159.99999999821 -4479.99999999402 -4440.00000000779 -4479.99999998706 -3999.99999999395 -4439.99999998446 -3999.99999992152 -4319.99999997643 -3239.99999997534 -2439.99999999027 -2399.99999999382 -3520.00000001862 -3679.99999998843 -2559.99999999196 -1719.99999999191 -639.999999988296 -159.999999995464 160.000000005451 280.000000007259 359.999999999108 360.000000006412 320 439.999999999108 480 640.000000001785 679.999999978638 600 559.999999999108 560 520.000000007509 440 399.999999993338 440 440 479.999999998215 400.000000007645 480.000000000892 519.999999992309 559.999999999108 679.99999998542 600.000000006867 599.999999993111 640.000000000892 799.999999992173 680 600.000000001785 559.999999999107 439.999999992974 280.000000008833 239.999999999108 199.999999992906 120 80.0000000008924 79.9999999991075 80.0000000080774 119.999999999108 80.0000000081229
-5000 -4120.00000000258 -479.999999981776 479.999999990382 1400.00000002024 919.999999991115 919.999999993742 440.000000001739 240.00000000087 239.99999999913 80.0000000027853 -80.0000000045475 -80.0000000008697 -80.0000000008697 -159.999999997124 -160 -160 -160 -320.000000002967 -560.00000000386 -720.000000001739 -800.000000002609 -1040.00000000348 -1520.00000001138 -3400.00000003254 -4960.00000001147 -5479.99999999598 -5400.00000000087 -5399.99999999594 -5320.00000000409 -5280 -5280 -5240 -5160 -5079.99999999493 -4760.00000000335 -4919.99999999826 -4799.99999999486 -4799.99999999571 -4560 -4439.99999999566 -4400.00000000436 -4439.99999999649 -4240 -3999.99999999731 -3640.00000000087 -3360.00000000808 -3279.99999997926 -2599.99999999722 -2639.99999999913 -2640.00000000456 -2840.00000000087 -2999.99999999539 -3200 -3359.99999999826 -3479.99999999532 -3279.99999999669 -3439.99999999789 -3120.00000000649 -2800.00000000309 -2040.00000003965 -2400.00000003597 -1959.99999997484 -2680.00000001596 -2680.00000000281 -2640.00000002254 -2880.00000000087 -2920.00000000087 -3160.00000000212 -3359.99999999913 -3480.00000000328 -3599.99999999079 -3679.99999999494 -3880.00000000087 -4000.00000000598 -3959.99999999147 -3559.99999999832 -2719.99999998707 -1800.00000000087 -1679.99999999565 -1879.99999999826 -2360.00000000614 -3000 -3400 -3560.00000000447 -3440.00000000087 -3480.00000000538 -3479.99999999459 -3280.00000000456 -3839.99999999194 -3640.00000002389 -4039.99999999913 -3679.9999999907 -3359.99999999708 -3200.00000000642 -2679.99999999059 -2679.99999999266 -2599.999999984 -2319.99999999523 -1839.99999999694 -1760.00000000435 -1920.00000000484 -1759.99999999426 -1800.00000001152 -2120.00000000404 -2279.99999999826 -2359.99999999913 -2559.99999999826 -2680.000000005 -2640 -2520.00000000087 -2440.00000000507 -2360 -2559.9999999889 -2520.00000000514 -2480.00000000174 -2959.99999999913 -3119.99999999566 -2719.99999999738 -3039.99999999475 -2960.00000000701 -2480.00000000443 -2000.00000001325 -2159.99999998931 -1399.99999993416 -79.9999999963507 480.000000022129 -80.0000000036948 -519.999999979912 -80.0000000118291 -480.000000003763 -599.999999994475 -479.999999985096 -640.00000000731 -1680.00000000733 -1920.00000001471 -1680.00000000609 -1480.00000000653 -1880.00000000087 -1800.00000000087 -2400.00000001494 -3320.00000000488 -3560.00000000087 -3359.99999998927 -1879.99999998367 -2880.00000001082 -3640.00000000261 -3879.99999999913 -3999.99999999322 -4120.00000000593 -4240.00000000683 -4240.00000000685 -4200.00000000687 -4160.00000001292 -4159.99999999826 -4239.99999999913 -4639.99999999129 -4240.00000002794 -4360.00000001141 -4280.00000000181 -3559.99999995854 -3519.99999999826 -3279.99999998667 -1719.99999998836 -799.999999994594 -199.999999993702 80 239.99999999913 359.99999999913 360 399.999999992718 479.99999999913 480 519.99999999178 599.999999986125 640 640 719.99999999169 599.99999999913 519.999999994253 520 480 479.999999993315 480 519.9999999924 480 559.999999991485 559.99999999913 600 680.000000006844 680.000000006867 640.000000012909 679.999999985306 560.000000006935 559.99999999913 520 480 360 280 200 199.99999999913 119.99999999913 119.999999991991 40.000000008032 80 80 40.0000000081002
-5000.00000000085 -4160 -159.999999993037 80.0000000095724 1199.99999998782 999.999999999022 519.999999999 400.000000000847 319.999999999153 2.54090082302049e-09 -79.9999999927354 -40.000000003655 -80 -120 -160 -159.999999997101 -160 -199.999999996209 -159.999999997033 -280 -320.000000000847 -320 -679.999999996942 -880.000000003928 -1240.00000000395 -1800.00000000795 -2400.00000000484 -3400.0000000235 -4520.00000000631 -5200.0000000171 -5159.99999999761 -5359.99999999589 -4840.00000000837 -5199.99999998669 -4960 -4720 -4360.00000001184 -4320.00000000508 -4160.00000000766 -4040.00000001112 -3920.00000000516 -3999.99999999566 -3680.00000001659 -3680.00000000085 -3519.99999999898 -2760.00000000574 -1960.00000001334 -1880.00000004958 -1920.00000001544 -1999.99999997684 -2200.00000000007 -2880.00000002348 -2959.9999999988 -2439.99999999756 -2079.99999996887 -1759.99999997376 -2359.9999999979 -1999.99999999276 -2920.00000000049 -2680.0000000178 -3079.99999999438 -3119.99999999746 -3119.9999999901 -3039.99999999661 -3079.99999999915 -3080.00000001614 -2800.00000000339 -2920 -2880.00000003707 -3360.00000001481 -3520.00000000085 -3639.99999999413 -3719.99999999496 -3800.00000000085 -3880.00000000509 -3639.99999999743 -3039.99999999227 -2439.99999999223 -1919.99999999482 -1719.99999998875 -1640.00000000522 -2160.00000000609 -2880.00000000696 -3440.00000000974 -3759.99999999661 -3480.00000000364 -3359.99999999464 -3119.99999998724 -3559.99999997838 -3480.00000000458 -3879.99999999915 -3559.99999999498 -3359.99999999366 -3319.99999999534 -3359.99999999746 -2639.99999999614 -2480.00000000339 -2559.99999999746 -2399.99999999523 -2359.99999998137 -2079.99999998554 -880.000000030991 -1960.00000000888 -1720.00000001062 -2080.00000000085 -2239.99999999422 -2279.99999999915 -2200.00000001494 -2680.000000005 -2760.00000000502 -2800.00000001094 -1999.99999998651 -2480.00000000763 -2759.99999999746 -2520.00000000169 -2440.00000000347 -2839.99999999312 -2520.0000000207 -2720.00000000692 -2960 -3120.00000001159 -1919.99999999279 -1759.99999996747 -1639.99999999466 -1599.99999999915 -1359.99999999831 -1199.99999999661 -2319.99999997254 -1679.99999995879 -1319.99999989035 -120.000000075772 -120.000000053558 -239.999999996993 -679.999999992735 -880.000000001694 -999.999999995231 -839.999999988722 -1040.00000000085 -1320.00000001959 -1720.00000000655 -2040.00000001315 -2560.00000001556 -3080.00000000832 -1959.99999998671 -679.999999992485 -1840.0000000426 -3320.00000001343 -3840.00000000674 -4040 -3919.99999999491 -3799.99999998893 -3800.00000000254 -3920 -4080 -4080 -4520.00000000607 -4640.00000001049 -4799.9999999808 -4799.99999999047 -4840.00000001232 -4759.99999999043 -4159.9999999904 -3479.999999968 -2159.99999996704 -839.999999974051 -119.999999993702 119.999999999153 160 320 439.999999986375 400.000000006412 479.999999986284 559.999999993543 520.000000007327 560.000000013006 600.000000000847 640 640 600 599.999999993383 520 520 559.999999994162 520 519.999999999153 480.000000006753 559.999999986449 600 639.999999993179 680 680.000000002541 719.999999993111 719.999999999153 600.000000009476 560.000000007805 520 440.000000007003 360 280 199.999999992929 120.000000007941 80.0000000071168 119.999999999153 80 80 80 40.000000000847
-5000 -4120.0000000034 -199.999999997397 119.999999993923 400.000000007594 559.999999997328 319.99999999813 160.000000000824 80.0000000054797 -80 -80 -80 -159.999999999176 -160 -160 -160 -160.000000002922 -40.0000000016485 -120 -159.999999999176 -120.000000000824 -239.999999996965 -520.000000009175 -1040.00000000226 -1439.99999999918 -1839.99999999835 -2000.00000000397 -2199.99999999448 -2160.00000000319 -2680.00000000165 -2760.00000000082 -2680 -2600.00000000082 -2520.00000001074 -2640.00000000161 -2160.00000001242 -2080.0000000033 -1640.00000000165 -1680 -2279.99999999835 -3600.00000000099 -4520.00000000616 -4760 -4559.99999998232 -3720.00000005229 -4439.99999999972 -4480.00000000082 -4560 -4520.00000000365 -4280.00000000367 -4200.00000000617 -3759.99999999174 -3359.99999998504 -2920.00000001459 -2959.99999998748 -3119.99999998775 -2960.00000001285 -3239.99999999147 -3239.99999999918 -3280.0000000039 -3359.99999999525 -3360.00000000559 -3400.00000000314 -3360 -3160.00000000082 -2920.00000001219 -2959.99999999023 -2999.99999999839 -3120.00000000986 -3320.00000000578 -3440.00000000995 -3599.99999999918 -3760.00000000921 -3799.99999999074 -3440.00000000412 -2919.99999999821 -2399.99999998286 -2240.00000000596 -2199.99999998804 -2160 -2280.0000000019 -2519.99999999478 -3400.00000001162 -3839.99999999835 -3960 -3880.00000000449 -3800.00000000985 -3800.00000000618 -3960.00000000582 -3799.99999999166 -3319.99999998241 -2839.99999999455 -3159.99999997593 -3199.99999999451 -3000.00000000937 -3039.99999998588 -3279.99999998807 -2879.99999998017 -2559.99999999918 -2199.99999999685 -1880.00000000647 -2000.00000000969 -2199.9999999887 -2279.9999999967 -2039.99999997297 -1279.99999999096 -2280.0000000058 -800.000000029809 -1479.99999997758 -2559.9999999958 -2839.99999999413 -2519.9999999974 -2439.99999999491 -2400.00000000924 -2479.99999999918 -2680.00000000186 -2520.00000001202 -2479.99999998438 -2679.9999999923 -3400.00000000443 -2799.99999998302 -3119.99999997999 -2839.99999998524 -1880 -1799.99999998927 -1479.99999999087 -1120.00000007236 -2560.00000000708 -3040.00000003459 -2560.00000000466 -2680 -2560.00000000553 -359.999999998573 -200.000000006395 -200 -280.000000005616 -360.000000012926 -400.000000020282 -800.000000010545 -1480.00000001795 -1960.00000000082 -2360.00000001233 -2640.00000001402 -1999.99999999585 -1840.000000005 -2360.00000001086 -3120.00000001091 -3600.00000000506 -3920.00000000591 -4000.00000000082 -3999.99999998396 -3760.00000001361 -3920.00000000683 -4239.9999999948 -4159.9999999879 -4559.99999999918 -4679.99999999308 -4680.00000002 -4759.99999999386 -4720.00000000451 -4999.99999999381 -5159.99999999214 -4519.99999999212 -3279.9999999921 -1239.9999999716 -359.999999992878 40.0000000071452 240.000000000824 359.999999992809 400.000000007213 399.999999999176 400 520.000000000824 520.000000000824 560.000000007327 560 560.000000008197 599.999999992605 560.000000000824 560 560 520 560.000000006685 519.999999993292 519.99999999327 520 560.0000000076 520.000000007623 559.999999999176 639.999999992332 600.000000007691 719.999999992286 720 599.999999994714 599.999999993867 480.000000007804 400.000000001648 360 280 200 120 80.0000000071168 79.9999999936847 79.9999999920135 79.9999999919907 80 40.0000000080547
-4919.99999998545 -4200 -1799.99999991809 -79.9999999923432 319.999999998954 40.0000000074806 240 239.999999999199 -39.9999999972601 -6.32667251909781e-09 -80 -80 -159.999999998397 -160 -199.999999994247 -160.000000002899 -160 0 5.37170308222844e-09 5.99108176861643e-20 -3.012701199623e-09 -360.000000002234 -920.000000001455 -1280.00000000388 -1600.00000000621 -1919.9999999992 -2119.9999999984 -2240.00000000317 -2400.0000000008 -2440.0000000008 -2520.00000000484 -2600 -2719.99999999591 -2480.0000000001 -2359.99999999932 -1959.99999999264 -1480 -1800.0000000102 -2640.00000000182 -3280.00000000024 -3760.00000000347 -4240.00000000509 -4479.99999999649 -4439.99999999727 -4359.99999997224 -2320.00000005735 -3840.00000001202 -3760.00000000886 -3840.0000000008 -3880.0000000016 -3800.0000000114 -3840.00000000211 -3640.00000000748 -3160.00000000432 -2959.99999999702 -2759.99999999799 -2680.00000000018 -2519.99999996066 -2400.00000000641 -2919.9999999914 -3120.00000000472 -3359.99999999051 -3320 -3280.00000000798 -3199.99999999759 -3039.9999999919 -2839.9999999992 -2840.0000000016 -3079.9999999992 -3159.99999999507 -3280.0000000008 -3480.00000000417 -3519.99999999661 -3480.00000000582 -3359.9999999984 -3320.00000000106 -3400.00000000028 -3639.99999999088 -3559.9999999992 -3639.9999999984 -3519.99999998724 -3480.000000002 -3799.9999999976 -4079.99999999636 -4200.0000000008 -4200.0000000024 -4080.00000000371 -4199.99999998639 -3759.99999999624 -3040.0000000016 -3320.00000001661 -3679.9999999984 -3800.0000000085 -3799.99999999293 -3559.99999999532 -3520.00000000941 -3319.9999999992 -2879.9999999913 -2399.99999999442 -1880.0000000024 -1919.99999998554 -2240.00000000324 -2399.99999999433 -2640 -2760.00000000982 -2879.9999999992 -3039.99999999424 -3080.00000000498 -3119.9999999942 -3199.9999999984 -1280.00000010297 -1519.99999998399 -1480.00000000189 -2320.00000000382 -2680.00000000787 -2880.00000000436 -2959.99999998204 -2800.00000001642 -3479.99999999397 -3319.9999999895 -3199.9999999992 -3280.00000000979 -3160.00000000612 -3039.99999999385 -2759.99999997509 -2240.00000003532 -3279.9999999992 -2920.00000000303 -2759.9999999992 -2839.99999999773 -2559.99999998659 -2200.00000002362 -1280.0000000278 -79.9999999975955 40.0000000063949 160 719.999999900189 -600.000000005662 -439.999999991911 -1080.00000000811 -1520.00000000733 -1880.00000001391 -1440.00000001893 -1759.9999999876 -1799.9999999992 -2560.00000000584 -3160 -3560.0000000008 -3799.99999999409 -3960.0000000016 -4159.9999999976 -4319.99999999162 -3920.00000004362 -4199.99999997269 -4399.99999999475 -4360.00000001982 -4480 -4480.0000000008 -4679.9999999992 -4920 -4960.00000000699 -5079.99999998839 -4960 -4799.99999997258 -2839.99999993484 -599.999999993702 7.12248038326167e-09 200.000000007145 360.000000007168 360.000000007992 440 479.999999993565 520 480.000000000801 560.000000006503 600 559.999999994253 560 599.999999999199 560.000000006617 560 519.999999999199 520.000000007486 480 440 479.999999994048 440.000000007577 480 400.000000000801 440 479.999999993133 520 519.999999993088 480 400.000000000801 360.000000007782 319.999999992997 280 200 160 80.0000000157911 119.999999999198 80.0000000071395 79.9999999991985 80.0000000008015 159.999999991189 119.999999999198
-4999.99999999922 -4559.99999997677 -4079.99999997579 -39.9999999939689 359.999999999221 359.999999994657 40.0000000023363 -39.9999999914507 119.999999999221 39.9999999956799 -79.9999999972147 -80 -80.0000000064404 -160 -320 -360.000000005798 -360.000000005844 -519.999999995498 -359.999999994697 -440.000000000654 -759.999999999898 -1040.00000000373 -1600.0000000015 -1959.99999999688 -2239.99999999844 -2520.00000000235 -2679.99999999607 -2759.99999999922 -2879.99999999525 -3039.99999999445 -3039.99999999442 -3079.99999999922 -3359.99999999611 -3599.99999998949 -2880.00000000255 -3199.99999999221 -3200.00000001741 -2720.00000001466 -3399.99999999238 -3400.00000000344 -3320 -3200.00000000234 -3360.00000000858 -3720.00000000156 -3960.00000000867 -3599.99999998848 -2479.99999998403 -1680.00000000803 -1920.00000001041 -2560.00000001102 -3080.00000000681 -3359.99999998651 -3279.99999999704 -2600.00000002647 -2919.99999999922 -2320.00000000078 -2400.00000002071 -1760.00000001701 -1520.00000001163 -2040.00000001014 -2599.9999999812 -3199.99999999922 -3520 -3399.99999999046 -3159.9999999912 -2959.99999999752 -2759.99999999844 -2839.99999999358 -2920.0000000041 -3039.99999999587 -2920.00000000078 -3160.00000000495 -3240.00000001414 -3520.00000000766 -3560.00000000502 -3799.99999999496 -3959.99999999338 -4080.00000000862 -4080.00000001299 -4239.99999999922 -4439.99999998891 -4280.0000000044 -4320 -4400 -4320.00000000447 -4319.99999998204 -4079.99999999782 -3400.0000000022 -2519.99999998944 -3680.00000000302 -4040.00000000078 -4040.0000000077 -4079.99999998992 -3839.99999999766 -3800.00000000546 -3679.99999998981 -3519.99999999605 -2839.9999999905 -2240.0000000191 -2119.99999998885 -2159.99999999922 -2399.99999999438 -2199.99999998852 -2680.00000000567 -2880.00000000078 -2840 -3200 -3280.00000000654 -3480.00000000578 -3599.99999999342 -3479.99999999922 -3240.00000000507 -3120.00000000156 -2360.00000000512 -3000.0000000095 -3000.00000001266 -2999.9999999689 -3120.00000000599 -3159.99999999844 -3319.99999999163 -3120.00000002422 -3239.99999998722 -3120.00000000156 -3160 -3759.99999999463 -3399.99999999461 -3399.99999993273 -3040.00000006216 -3560.0000000078 -4279.99999998988 -4040.00000002518 -3559.9999999716 -1759.9999999526 -759.999999998442 -320.00000000885 -479.999999992048 -239.99999994788 -600.000000012102 -719.999999979832 -680.000000016865 -1119.99999998359 -1919.99999998382 -1799.99999999844 -1999.99999998953 -1520 -2120.0000000148 -2480.00000000976 -3120.00000001489 -3640.00000001338 -3880.00000000204 -4279.99999999326 -4120.00000002003 -4679.99999998043 -3800.00000009854 -4600.00000001814 -4440.00000001899 -4440.00000000078 -4480.00000000534 -4560.00000000078 -4840 -4920.00000000696 -4960.00000000078 -4960 -4920.00000000078 -4039.99999999922 -2079.9999999591 -759.999999974716 80.0000000007788 280.000000006366 399.999999999221 400.000000014381 519.999999999221 480 520 520.000000007282 520.000000000779 520 520.000000006571 560 560 520.000000007418 519.999999993338 400.000000000779 360.000000007486 400 359.999999993247 320.000000000779 320.000000000779 360 360 360.000000007645 320.000000007668 320.000000006133 280 280.000000006179 280 239.999999992218 240 200 160.00000000785 160.000000000779 160 80 160.000000007941 200.000000007185 519.999999992013 239.999999990433
-5000 -5000 -4160.0000000026 -3599.99999999359 -239.999999995839 39.9999999973284 199.999999995794 399.999999990644 399.999999994992 240.000000000756 119.999999996459 -40.0000000035641 -80 -120 -480.000000005753 -559.999999996976 -1560.00000000292 -1600.00000000446 -1840.00000000593 -2000.00000000821 -2559.99999999021 -2960.00000000151 -3080.0000000023 -3400.00000000081 -3959.99999999781 -3840.00000000928 -3600.00000000378 -3880.00000000242 -4920.00000000395 -4920.00000000322 -4959.99999999924 -4959.99999999674 -4959.99999999924 -4960 -4960 -4920.00000000411 -4920.00000000338 -4959.9999999966 -4879.99999998178 -3799.99999999656 -3519.99999999924 -3120 -2199.99999998719 -2119.99999999849 -2920.00000000151 -2960.0000000002 -2560.00000000948 -2120.00000000076 -2400.00000001309 -2720.00000000583 -2800.00000000143 -2800.00000000296 -3360.0000000082 -3559.99999999849 -3399.99999999546 -2680.00000000686 -2640.00000000988 -2039.99999999932 -2479.99999996521 -1519.99999999662 -2559.99999996772 -2519.9999999927 -2520.00000002607 -2919.9999999808 -3040.00000000727 -2720.00000000479 -2640.00000000255 -2720.00000000892 -3120.00000000486 -2999.99999999924 -2799.99999999585 -3040.00000000227 -3280.00000000763 -3400.00000000346 -3560.00000000999 -3920 -3919.99999999496 -4120.00000000506 -4199.99999999642 -4319.99999999924 -4400.00000000076 -4360.00000000076 -4319.99999999191 -4119.99999999707 -4119.99999999182 -3759.99999999253 -2840.00000003086 -3160.000000031 -3839.99999999849 -4160.00000000458 -4280 -4319.99999999924 -4040.00000000151 -4119.99999999232 -4039.99999998912 -3920.00000000151 -3679.99999999678 -3239.99999999449 -2639.99999999773 -2719.99999999773 -2959.99999999291 -2479.99999999698 -2239.99999998356 -2200.00000001693 -2559.99999998678 -2920.00000000076 -2039.9999999874 -3279.9999999988 -3320.00000000727 -2280.00000000729 -3560.00000000429 -3439.99999999493 -3159.99999999793 -3120.0000000057 -3120 -3279.99999999408 -3240 -3359.99999999034 -3680.00000000221 -3559.99999999924 -3560.00000000076 -3680.00000000455 -3679.99999999014 -4120.00000000076 -3720.00000002373 -4639.99999997769 -4879.99999995054 -3760.00000000165 -4919.99999991269 -4680.00000001247 -4560.00000001025 -3959.99999998191 -3079.99999999445 -1999.99999999546 -1239.99999998171 -959.999999994384 -639.999999994361 -799.99999999585 -1159.99999999924 -1480.00000003156 -1800.00000002097 -2600.00000001075 -2480.00000000804 -2560.00000001815 -3000.00000001315 -2639.99999995264 -1200.00000003084 -2520.0000000456 -4000 -4320.00000000593 -4519.99999999924 -4439.99999998728 -4159.99999999773 -4000.00000003691 -4639.99999999244 -4479.99999999393 -4519.99999999391 -4559.99999999924 -4560.00000001379 -4760.00000000616 -4840.00000000075 -4840.00000000075 -4760.00000000076 -4720 -4639.99999999372 -3919.99999996473 -2639.99999996764 -559.999999979457 120.000000007122 439.999999992855 400.0000000049 440 440 480 480 520.000000006526 480.000000006548 480.000000000756 480.00000000735 440.000000006617 519.999999986721 480 400 360 280.000000007486 280 280 280 280 240.0000000076 279.999999993133 240 199.999999993088 120.000000006935 200.000000007714 200.000000008492 199.999999992997 239.999999991462 240.000000006293 239.999999992929 200.000000000756 160.000000000756 160.00000000714 160.000000007918 240.000000007941 479.999999992792 519.999999984783
-5000 -5000 -4999.99999999666 -4200.00000000073 -4239.99999999927 -4079.9999999966 -1359.99999989644 0 40.0000000036664 -79.9999999917122 39.9999999986812 -959.999999979485 -1480.00000000356 -1599.99999997366 -1999.99999999639 -1520.00000000663 -2079.99999998541 -1279.99999999632 -1240.00000000073 -1279.99999999628 -1240.00000000073 -1279.99999999696 -2559.99999999548 -4879.99999998856 -4959.9999999969 -4959.99999999927 -4959.99999999685 -4960 -4959.99999999607 -4920 -4959.99999999927 -4960 -4959.99999999927 -4959.99999999596 -4959.99999999667 -4959.99999999665 -4920.00000000411 -4959.99999999927 -4959.99999999658 -4960 -4959.99999999927 -4959.99999999578 -4959.99999999649 -4920.00000000354 -3480.0000000094 -3359.9999999978 -2640.00000000941 -2680.00000000216 -2839.99999999124 -3120.00000000734 -3360.00000000519 -3640.00000000225 -3719.99999999853 -3799.99999999174 -3800.00000000305 -3440.00000000161 -2879.99999997221 -3560.00000000385 -3080.00000000094 -3159.99999999073 -2799.99999999168 -2720.00000000541 -2600.00000001044 -2600.00000001091 -2839.99999999599 -2560.0000000033 -2560.00000002029 -3479.99999998702 -3199.99999998989 -2959.99999999175 -2799.99999999927 -3000.00000000491 -2960.00000001332 -3240.00000000495 -3600.00000000775 -3840.00000001059 -4079.99999999498 -4160.00000000788 -4240 -4319.99999999927 -4159.99999999636 -4120.00000000073 -4160.00000000736 -3599.99999999702 -3359.99999996799 -3120.00000001127 -3000.00000001879 -3999.99999999927 -4279.99999999927 -4360.00000000458 -4439.99999999927 -4400 -4480.00000000392 -4359.99999999607 -4359.99999999385 -4159.99999999529 -3759.9999999938 -3279.99999999378 -3159.9999999978 -3440.00000000626 -3399.99999999445 -3479.99999998811 -3520.0000000034 -3479.99999999584 -3480.00000000491 -3600.00000000493 -2839.99999998478 -3719.99999999487 -3520.000000005 -3199.99999998273 -3120.0000000022 -3039.99999997825 -3160.00000001019 -3200.0000000073 -3360 -3280.00000000592 -3359.99999998298 -3999.99999999333 -3920.0000000045 -3720.00000000599 -3640.00000000601 -4280.0000000053 -4199.99999999615 -3719.99999999633 -4680.0000000017 -4920 -4920 -4920 -3239.99999999381 -2840.00000000915 -4079.99999989765 -4520.00000000259 -4319.99999998492 -3440 -1999.9999999647 -1079.9999999873 -840 -880.000000004928 -1080 -1280.00000001215 -1400.00000001939 -2320.0000000317 -3239.99999998845 -3199.99999997248 -3240.00000002113 -3720.00000000949 -3079.99999995087 -2999.9999999956 -3919.99999999853 -4400 -4520.00000000596 -4640.00000000525 -4399.99999998273 -4440.00000000838 -4520.0000000165 -4520 -4759.99999999927 -4680.00000000612 -4120.0000000044 -4719.99999999384 -4719.99999999381 -4759.99999999927 -4640 -4640.00000000625 -4639.99999999299 -4559.9999999937 -4159.99999999221 -1879.99999996608 80.0000000070997 240.000000001467 320.000000001467 360.000000000733 360 400 440.000000007236 520.000000000733 520.000000000733 480.000000000733 519.999999992673 440 479.999999992627 400.000000000733 359.999999999267 280 200 200 239.999999993224 200.000000006798 200 159.999999993889 160.000000000733 120 80.0000000076454 40.0000000076682 80.0000000007333 199.999999991553 160 160.000000007026 240 239.999999992195 239.999999991439 239.999999999267 200 200 160.000000007918 280.000000015149 479.999999998533
-5000 -5000.00000000258 -5000 -5000 -4679.99999999238 -4239.99999999929 -4080 -2239.99999997045 -720.00000000893 -440.000000008527 -1040.00000000776 -1360.00000000981 -240.000000054541 -160.000000019241 -3.5868197300663e-09 -1239.9999999971 -1320 -1359.99999999706 -1320.00000000297 -1320.00000000071 -2520.0000000023 -4119.99999997726 -4960 -4959.99999999692 -4959.9999999969 -4920.00000000071 -4920.00000000315 -4920.00000000317 -4920.00000000071 -4920.00000000393 -4959.99999999929 -4959.99999999603 -4920.000000004 -4920.00000000402 -4959.99999999667 -4959.99999999594 -4920 -4959.99999999929 -4920.00000000413 -4959.99999999929 -4920 -4920 -4959.99999999578 -4960 -4920 -4920.00000000358 -4920.0000000036 -4879.99999998564 -4559.99999999351 -5040.00000000959 -4559.9999999963 -4760.00000000672 -4879.99999998451 -4199.99999999247 -3640.00000001799 -3479.99999998619 -3079.99999999475 -2919.99999999828 -2160.00000000459 -2279.99999999149 -1800.00000000534 -2079.99999999495 -2080.00000001475 -1960.00000001695 -3040.00000000188 -2840.00000000119 -2800.00000001268 -3319.99999999113 -3639.99999999519 -3760.00000000612 -3560.00000000202 -3199.9999999937 -2919.99999998444 -2999.99999999228 -3000.00000000071 -3199.99999999147 -3560.00000000284 -3640.00000001075 -3959.99999999134 -3840.00000000355 -3920 -3559.99999999702 -3240.0000000124 -3359.99999999484 -3119.99999998071 -3640.00000001276 -4080 -4360.00000000454 -4519.99999999544 -4520 -4520.0000000046 -4600 -4599.99999999464 -4600 -4520 -4319.99999998659 -4080.0000000026 -3879.99999999454 -3920.00000000813 -3999.99999999236 -4080.00000001233 -4119.99999999018 -4119.99999998458 -3799.99999999929 -3880.00000000491 -3879.99999999436 -3879.99999999362 -4120.00000000569 -3959.99999995933 -2759.99999998142 -2640.00000001088 -3359.99999999929 -3440.00000001019 -3680.0000000044 -3600.00000000514 -3680.00000000303 -4039.99999998963 -4039.99999998959 -3840.00000000071 -4280.00000000454 -4359.99999998803 -4279.99999999399 -4120.00000002412 -4640.00000000927 -4919.99999999858 -4920 -4799.99999998918 -4719.99999999528 -4719.99999999454 -3440.00000001573 -3279.99999994887 -3079.99999999447 -2879.99999999658 -2480.00000000557 -2079.9999999937 -919.999999995094 -1000.00000000564 -1239.99999999434 -919.999999991473 -720.00000000071 -999.99999999929 -1600.00000003018 -2360.00000000862 -2560.00000003644 -2559.99999998609 -3280.00000002622 -2880.00000005369 -3120.00000000447 -4079.99999998533 -4600.00000002754 -4599.99999997333 -4400.00000002676 -4880.00000000316 -4839.99999999787 -4599.99999998541 -4599.99999996286 -4880.0000000068 -4880.00000000683 -4799.99999999315 -4439.99999998839 -4000.00000001045 -4400.00000001313 -4519.99999998683 -4519.9999999882 -4399.99999999443 -4240.00000000772 -3879.99999998246 -1199.9999999528 -79.9999999936335 160.000000006389 320 280.000000000711 360 360.000000000711 440.000000007213 519.999999992053 520 440 440 400 440.00000000735 399.999999994048 240.000000000711 200 200 239.999999985783 160.000000006776 80.0000000007105 80.0000000007105 80 1.42108547139871e-09 -39.9999999848001 -39.9999999930878 -40 -79.9999999923318 -7.1054273551235e-10 -7.00310920352555e-09 0 -39.9999999915303 40.0000000077819 120.000000001421 120.000000008538 240.000000007139 240 120 120.000000007208 359.999999992059
-5000 -5000 -4320.0000000058 -3920.000000007 -3760.00000000884 -3840.00000000611 -2200.00000000413 -2120 -680.000000002052 -719.999999999312 -1359.99999997569 -800.000000009629 -599.9999999632 -159.99999999223 -959.99999999556 -2199.99999999258 -2479.99999999639 -2520.00000000138 -2480.00000002146 -4919.99999999013 -4920.0000000037 -4920.00000000069 -4920 -4920.00000000308 -4959.9999999969 -4920.00000000381 -4920.00000000384 -4959.99999999931 -4959.99999999931 -4920.0000000039 -4920.00000000393 -4920.00000000069 -4959.99999999671 -4959.99999999669 -4960 -4959.99999999596 -4960 -4960 -4920 -4959.99999999587 -4920.00000000415 -4959.99999999513 -4960 -4920.00000000422 -4920 -4959.99999999573 -4920 -4960 -4959.99999999931 -4920 -4920 -4920 -4959.99999999557 -4959.99999982965 -4040.00000001376 -4039.99999998651 -1880.00000005423 -3199.99999998569 -2439.99999999087 -2040 -2519.99999999587 -2559.99999999931 -3000.00000001603 -3360.00000001472 -3680.00000000264 -3400.00000000472 -3560.00000000131 -3760.00000000408 -3999.99999999658 -3959.99999999587 -3760 -3560.00000000206 -3240 -2759.99999998391 -2520.00000000195 -2839.99999997882 -2839.99999998852 -3359.99999998414 -3239.99999998769 -3559.99999999565 -3239.99999999262 -2720.0000000176 -2840.00000000609 -3360 -4000.00000000172 -4320.0000000038 -4519.9999999948 -4520.00000000454 -4520.00000000525 -4599.99999999542 -4719.99999999471 -4640.00000000463 -4599.99999999604 -4679.99999999931 -4640.00000000937 -4679.99999999598 -4639.99999999458 -4680 -4680.00000000409 -4639.99999999451 -4520 -4559.99999999378 -4439.99999999931 -4480 -4479.99999999931 -4479.99999998944 -4319.99999999229 -4199.99999999502 -4119.99999999931 -4040.00000000069 -3999.99999999495 -3880 -3920.00000000578 -3799.99999999351 -3440.00000001473 -3760.00000000654 -3880.0000000045 -4000.0000000222 -4280.00000000592 -4360 -4319.99999999404 -4320.0000000053 -4759.99999999931 -4959.99999999397 -4519.99999999601 -4479.9999999906 -4519.99999983963 -3639.99999990693 -4560.00000000683 -4440.00000003084 -4759.99999999312 -4920 -4719.99999996116 -3599.99999997139 -1960.00000000766 -1599.9999999804 -1039.99999999642 -559.999999996402 -840.000000005684 -720.000000011414 -1040.00000000069 -1360.00000000782 -1720.00000000123 -1760.00000000717 -2360.00000000651 -2440.00000005328 -3240.00000001173 -3520.00000001698 -3719.99999999368 -4400.00000000387 -4639.99999999473 -4519.99999999608 -4560.00000000138 -4600.00000000138 -4599.99999999931 -4639.99999998717 -4640.00000000944 -4679.99999998371 -4119.99999999661 -2599.99999998427 -2160.00000002199 -3000.00000000965 -3440.00000000898 -3200.00000000138 -3640.00000000834 -3240 -1919.99999997678 -279.999999991439 -6.3664629123032e-09 160.000000007077 320 320 320 360.000000000688 360 400 360.000000013097 400 359.999999994094 360 359.999999993361 240 280 159.999999993292 80 40.0000000074408 -40 -1.16900653834283e-19 -40.0000000068212 -119.999999992468 -80 -80 -80.0000000006878 -159.999999999312 -239.999999998624 -199.999999999312 -80.0000000140062 -80.0000000070258 -40.0000000077364 -40 -40 40 120.00000000714 120 7.1850081440045e-09 80 79.9999999993122
-800.000000017599 -280.000000021282 -400.000000016684 -200.000000000665 -240.000000004633 -680.000000002672 -800.000000000665 -840.000000000665 -800.00000000274 -840.00000000486 -2719.99999998724 -1799.99999999734 -1840.00000001516 -3359.99999999318 -3959.99999999934 -4400.00000000157 -4959.99999999708 -4960 -4959.99999999637 -4959.99999999701 -4920.00000000368 -4920.00000000303 -4959.99999999934 -4920.00000000375 -4920.0000000031 -4959.99999999934 -4920.00000000381 -4959.99999999934 -4959.99999999934 -4959.99999999678 -4959.99999999934 -4960 -4959.99999999671 -4959.99999999934 -4920.00000000333 -4920.00000000066 -4920 -4920.00000000066 -4920.00000000066 -4920.00000000066 -4960 -4960 -4959.99999999649 -4959.99999999934 -4960 -4920.00000000066 -4960 -4960 -4960 -4960 -4960 -4920.00000000438 -4799.99999998703 -4920.00000000443 -4839.99999999376 -4599.99999999486 -3719.99999999934 -3720.00000000771 -3280.00000000066 -3399.99999999867 -3599.99999999933 -3600.00000000066 -3759.9999999947 -3880 -3920.00000000335 -3919.9999999953 -4039.99999999255 -4040 -3879.9999999959 -3800.00000000066 -3759.99999999933 -3639.99999999165 -3639.99999999447 -3480 -3399.99999999842 -3199.999999998 -2800.00000000628 -3040.00000001524 -2999.99999998634 -3280.00000000369 -3439.99999999867 -3839.99999998547 -3879.99999999225 -4040.00000000823 -4360.00000000314 -4560 -4560.00000000903 -4599.99999999933 -4600 -4679.99999999475 -4720 -4719.99999999471 -4880.00000000332 -4959.99999999934 -4920.00000000535 -4879.99999999529 -4879.99999999461 -4919.99999999933 -4839.9999999939 -4719.99999999934 -4720 -4680 -4680 -4640 -4640.00000000491 -4680.0000000056 -4719.99999999009 -4679.99999998938 -4560.00000000066 -4560 -4559.99999999933 -4480 -4360.00000000509 -4360.00000000312 -4399.9999999942 -4199.99999999417 -4400.00000000452 -4519.99999999934 -4440.00000000589 -4399.9999999895 -4759.99999999601 -4720.00000000927 -4920 -4920 -4920 -4239.9999999704 -2639.99999995888 -3079.99999998925 -2919.99999999388 -3000.00000000133 -2960.00000000617 -2959.99999999867 -3280.00000000289 -3840.00000001405 -2599.99999998322 -1880.000000002 -1119.99999999867 -319.999999995669 -400.000000014029 -599.999999994293 -639.999999994935 -880.000000005753 -920.00000000133 -959.999999995532 -1960.00000002012 -3240.00000001235 -3320.00000001826 -3360.00000000066 -3239.99999998093 -3599.99999998347 -3520.00000001391 -4160.00000000133 -3880.00000002599 -4280.00000000869 -4519.99999999462 -4480 -4440.00000000066 -4600 -3839.99999998291 -2039.99999998018 -1679.99999999448 -1800.00000000621 -2040.00000001312 -2360.00000001251 -3000.00000001255 -2159.99999996421 -839.999999982367 -80 40 240.000000006389 280 359.999999993565 320.000000006457 280.000000000665 320.000000000665 279.999999993474 160.000000000665 159.999999999335 80.0000000072589 80.0000000072816 160 159.999999993338 200.00000000133 -40.0000000060425 -120 -159.99999999867 -639.999999990564 -1039.99999998308 -1199.99999999401 -1759.99999999886 -2480.00000000509 -2039.99999998157 -2079.99999998086 -1479.99999999667 -1119.99999999238 -1079.99999999235 -919.999999999335 -679.99999999867 -399.999999976194 -119.999999999335 -80 -40 -79.9999999908652 -7.1622707763411e-09 -7.85007614443725e-09 6.6506800055184e-10 0
160.000000004485 -39.999999998073 -79.9999999980389 -239.999999999358 -239.999999996066 -439.999999994117 -1719.99999998844 -1920.00000000143 -2119.99999999872 -3640.00000002024 -4559.99999999679 -4600 -4560 -4639.99999999936 -4640 -4639.9999999971 -4680.00000000392 -4800.00000000037 -4920.00000000361 -4959.99999999637 -4920.00000000064 -4959.99999999936 -4959.9999999963 -4920.00000000372 -4920.0000000031 -4920.00000000377 -4920.00000000379 -4959.99999999936 -4959.9999999968 -4959.99999999614 -4959.99999999612 -4920.00000000326 -4959.99999999671 -4960 -4920.00000000333 -4920.000000004 -4959.99999999598 -4920 -4920.00000000342 -4920.00000000064 -4960 -4920.00000000064 -4959.99999999649 -4959.99999999646 -4920.00000000064 -4959.99999999642 -4959.99999999936 -4959.99999999573 -4959.99999999571 -4920.00000000431 -4959.99999999936 -4400.00000001179 -4639.99999999936 -4479.99999997806 -3919.99999999936 -4000.00000000826 -3720.00000000062 -3840 -3880.00000000388 -3999.99999999936 -3999.99999999479 -4040.00000000459 -4079.99999999539 -4120.00000000271 -4199.99999999936 -4240.00000000275 -4160.00000000128 -3920.00000000752 -3919.9999999959 -3680.00000000193 -3640.00000000479 -3839.99999998748 -3720.00000000484 -3680.00000000908 -3559.99999999576 -3519.99999999509 -3400.0000000135 -3559.99999999376 -3639.99999999872 -3839.99999999872 -4000 -3960.00000000247 -4200.00000000314 -4440.00000000889 -4600.00000000383 -4639.99999998973 -4679.99999999484 -4719.99999999093 -4720.00000000456 -4840 -4839.99999999475 -4920.00000000527 -4960 -4959.99999999534 -4920.00000000533 -4959.99999999936 -4920.00000000537 -4959.99999999525 -4959.99999999458 -4920.0000000048 -4920 -4919.99999999936 -4799.99999999513 -4760 -4680.00000000555 -4720 -4679.99999999872 -4640 -4560 -4559.99999999433 -4559.99999999936 -4559.99999999936 -4560.00000000509 -4639.99999999424 -4599.99999999422 -4639.9999999942 -4639.99999999417 -4599.99999999415 -4839.99999998633 -4760.00000000922 -4920.00000000064 -4959.99999999406 -4959.99999999404 -4959.99999999401 -4920 -4879.99999998458 -4879.99999996019 -4719.99999999936 -4640.00000000128 -4840.00000000676 -4920.00000000064 -4920 -4920 -4679.99999996465 -2999.99999997763 -1480.00000000064 -1120 -799.999999999358 -520.000000005684 -639.999999999358 -720 -600.000000006395 -440.000000006418 -600.000000005798 -1040.00000002003 -1880.00000002723 -3240.00000000128 -3319.99999998297 -3480 -3480.00000001251 -3279.99999999807 -3119.99999999936 -3120.00000000257 -3160.00000000538 -3600.00000002264 -4080.000000016 -4320.00000000674 -4359.99999998841 -4399.99999998515 -3919.99999997021 -3679.99999999229 -3359.99999999679 -3479.9999999824 -3680.00000000625 -3920.00000000435 -3279.99999999113 -2119.99999991837 -879.999999989802 -799.999999953451 7.6738615461091e-09 40.0000000141085 199.999999987131 120.0000000071 119.99999999352 6.4233063312735e-10 -600.000000002029 -1120.00000001053 -1679.99999998379 -1640.00000002462 -1999.9999999752 -1319.99999996724 -1359.99999997921 -959.999999997692 -2760.00000000028 -3280.00000002307 -4119.99999999003 -4319.99999999807 -4439.99999999679 -4360.00000000554 -4399.99999998994 -4359.99999999743 -4319.99999999118 -4119.99999998296 -3599.99999998099 -3039.99999997335 -2719.99999996566 -1959.9999999885 -1719.99999999679 -1679.99999999679 -1720.00000000257 -1760.00000001098 -1880.00000001814 -1879.99999998901 -719.999999957765 -39.9999999993577 -79.9999999842998 -39.9999999993577
-1.34093625091467e-08 -240.000000001239 -319.999999996157 -880.000000000148 -1840.00000003743 -4040.00000001131 -4480.00000000062 -4560.00000000272 -4640.00000000274 -4720.00000000062 -4760.0000000034 -4800.00000000281 -4800 -4840 -4840 -4920.0000000029 -4920 -4959.99999999706 -4959.99999999938 -4920.00000000361 -4920.00000000301 -4959.99999999634 -4920.00000000368 -4959.9999999963 -4959.99999999938 -4920.00000000062 -4920.00000000315 -4959.99999999938 -4920.00000000381 -4920 -4920.00000000062 -4959.99999999674 -4959.99999999938 -4959.99999999938 -4959.99999999667 -4959.99999999938 -4920.00000000062 -4879.99999998362 -4440.0000000028 -4599.99999999532 -4600 -4560.00000000558 -4920.00000000062 -4959.99999999938 -4440.00000000728 -4479.99999999952 -4440 -4480.00000000301 -4279.99999999635 -4999.99999995593 -4639.99999999569 -3719.99999999876 -3920.00000000374 -3760.00000000748 -3720 -3879.99999999938 -4120.00000000259 -4119.99999999677 -4319.9999999955 -4279.99999999938 -4160.00000000702 -4279.99999998755 -4280.00000000186 -4280.00000000062 -4320.00000000463 -4040.00000000651 -3920.00000000468 -4079.9999999906 -3959.99999999652 -3800.00000000846 -3959.99999999647 -3999.9999999881 -3480.00000001211 -3879.99999998971 -3599.99999999638 -3719.99999999388 -3840.00000000367 -3960.00000000369 -4079.99999999876 -4200 -4400.00000000438 -4559.99999999436 -4599.99999999558 -4560 -4600.00000000124 -4639.99999999551 -4759.99999999425 -4800 -4799.99999999938 -4959.99999999542 -4920.00000000062 -4920 -4959.99999999473 -4959.99999999938 -4959.99999999938 -4959.99999999529 -4920.00000000535 -4959.99999999938 -4959.99999999461 -4959.9999999952 -4960 -4959.99999999938 -4959.99999999513 -4959.99999999511 -4919.99999998894 -4680.00000000555 -4680.00000000062 -4679.99999999938 -4600 -4600.00000000503 -4640 -4679.99999999938 -4640 -4680 -4680.00000000514 -4679.99999999938 -4919.99999999814 -4879.99999999541 -4920 -4920 -4959.99999999938 -4959.99999999408 -4920 -4880.00000000658 -4920 -4959.99999999399 -4920 -4919.99999999938 -4920 -4919.99999999938 -4919.99999999876 -4920.00000000614 -4920 -4920.00000000557 -4079.99999999816 -2919.99999999195 -1959.99999998061 -1799.99999999248 -2079.99999999566 -1879.99999999243 -1679.99999998095 -1039.99999998726 -719.999999993605 -800.000000005179 -919.999999980679 -1080.00000001231 -2400.00000000987 -2919.99999997985 -3080.00000001058 -3320.00000001373 -3320.00000000782 -3280.00000000124 -3200.00000000662 -3159.99999999938 -2999.99999997938 -2759.99999999207 -3279.99999999638 -2920.00000001347 -2880.00000001723 -3720.0000000074 -3520.0000000099 -4160.00000000621 -4360.00000001308 -4559.99999999437 -4719.99999997869 -4720.0000000063 -4240.00000000508 -4279.99999997911 -3599.99999998806 -2919.99999996124 -2559.99999998801 -2399.99999999566 -2599.99999998549 -2960.00000001386 -3560.00000000991 -4240.00000000933 -4439.9999999969 -4640.00000000409 -4520.00000000226 -4160.0000000089 -4319.99999996725 -4520.00000000589 -4799.99999998415 -4879.99999999205 -4920.00000000549 -5080.00000000613 -5000 -4680.00000001855 -4720 -4600.00000000062 -4640.00000000749 -4680.00000000062 -4639.99999998618 -4440.00000000248 -4519.99999999366 -4600.0000000152 -5279.99999999876 -5399.9999999969 -5359.99999998218 -5239.99999999628 -5159.99999998981 -5119.99999998453 -4880 -4640.00000001556 -4759.99999999628 -4080.00000002201 -3879.99999997439
-400 -320.000000003774 -560.00000000602 -2680.00000000812 -3999.99999999907 -4480 -4559.9999999994 -4640 -4720 -4760 -4760 -4800.0000000006 -4839.99999999657 -4839.99999999715 -4920.0000000006 -4920.0000000035 -4959.9999999994 -4920.00000000294 -4959.99999999703 -4920.00000000359 -4959.99999999639 -4959.99999999696 -4920.00000000366 -4920.00000000308 -4959.9999999969 -4959.9999999994 -4959.99999999625 -4960 -4920.0000000006 -4920.00000000322 -4920.00000000384 -4959.99999999674 -4920.00000000388 -4440.00000000331 -4479.99999998941 -4480.00000000335 -4560 -4600 -4600 -4600 -4359.99999999665 -3319.99999999711 -3479.9999999947 -3439.9999999994 -4319.99999999045 -4359.99999998926 -4559.99999999878 -4439.99999998728 -3480.00000000909 -3439.99999999872 -3639.99999999881 -3680.00000000312 -3719.99999999626 -3839.99999999624 -3960.00000000379 -4080.0000000006 -4200.00000000383 -4280.00000000505 -4240.00000000388 -4160.00000001409 -4239.99999999667 -4280.00000000574 -4320.00000001706 -4319.99999999481 -4359.99999999138 -4239.99999999477 -3920.00000000871 -3879.99999999422 -4079.9999999941 -4359.99999999821 -4279.99999999645 -3879.9999999863 -3879.99999999521 -3840.0000000006 -3960.00000000848 -4080.00000000733 -4280.0000000006 -4399.9999999945 -4400.00000000747 -4559.9999999994 -4559.99999999503 -4559.9999999956 -4600 -4640 -4600.00000000447 -4800 -4839.99999999881 -4959.99999999546 -4720.00000000635 -4920 -4920 -4920 -4959.9999999994 -4920.00000000526 -4920.00000000468 -4959.99999999529 -4959.9999999994 -4959.99999999525 -4920.0000000006 -4960 -4959.99999999518 -4920 -4959.99999999513 -4920 -4959.9999999994 -4960 -4920 -4959.9999999994 -4920.0000000056 -4959.99999999498 -4920.00000000505 -4920 -4959.9999999994 -4960 -4959.99999999426 -4920.0000000006 -4920.0000000006 -4920 -4920 -4920.00000000585 -4920.0000000006 -4920 -4920 -4959.99999999406 -4920 -4920.0000000006 -4920.00000000541 -4920.00000000603 -4920.0000000006 -4959.99999999452 -4960 -4960 -4959.99999999445 -4920 -4719.9999999161 -4559.99999999498 -4120.00000001632 -4799.99999997377 -4360.00000001765 -3519.99999995647 -2160.00000001146 -1599.9999999879 -1039.99999998785 -999.999999999403 -880.00000000403 -1559.99999998247 -2120.00000002058 -2520.00000006366 -3679.99999996035 -4120 -4159.99999995769 -3319.99999998685 -3160.000000006 -3199.9999999994 -3239.99999999336 -3120 -3120 -3039.9999999994 -2920.00000000614 -2879.99999999881 -2760.00000003331 -3080.0000000154 -3280 -3440 -3359.99999998237 -3639.99999999549 -3720.0000000105 -4319.99999999187 -4200.00000000875 -4680.00000002275 -4800.00000000641 -4760.00000000643 -4839.99999999821 -4919.99999999173 -4999.9999999994 -5119.99999999881 -5159.99999999405 -4799.99999999163 -4479.99999999639 -4280.00000000298 -4280.00000000962 -4320.00000001452 -4399.9999999957 -4240.00000000909 -4240.00000000119 -4120.00000000239 -3879.99999998824 -3279.99999999297 -3000.00000001219 -3239.99999998066 -3120.00000000239 -3080.00000000179 -3120.0000000093 -3120.00000000239 -3119.99999999304 -3080.00000000758 -2879.999999993 -3079.99999999476 -3080.00000001529 -2959.9999999977 -2839.99999999589 -2560.00000000179 -2600.00000001726 -2440.00000002925 -2560.00000000897 -2840.0000000006 -2800.00000000902
-440 -480.000000004587 -2200.00000000927 -3200.00000000148 -4480 -4520 -4560.00000000327 -4679.99999999399 -4680 -4720 -4760 -4760 -4720.00000000681 -4800 -4800 -4799.99999996469 -4440 -4560 -4600 -4600 -4600 -4600 -4600.00000000057 -4600 -4600 -4600 -4640.00000000257 -4639.99999999943 -4360.00000000345 -4240.00000000402 -4399.99999999561 -3440.00000001091 -3320.00000001904 -3280.00000000675 -3399.99999999828 -3400.00000000335 -3439.99999999943 -3559.99999999885 -3599.99999999885 -3639.99999999943 -3680.00000000579 -3720.00000000349 -3760.00000000645 -3920.00000000239 -3919.99999999587 -4000 -4000 -3960.00000000305 -3919.99999999578 -3999.99999999943 -3919.99999999943 -3999.99999999513 -4079.99999999396 -4159.99999999943 -4200.00000000436 -4239.99999999619 -3799.99999999291 -3080.00000001788 -2639.99999999397 -2000.00000000127 -2520.00000000679 -2760.00000000739 -3400.00000000851 -3800.00000000227 -3719.99999999083 -3720.00000001037 -3920.00000000639 -4280.00000000931 -4439.99999998301 -4439.99999998762 -4199.9999999781 -3960.00000000433 -3799.99999998569 -4320.00000000307 -4559.99999999943 -4560.00000000312 -4280.00000000486 -4560 -4560.00000000057 -4600 -4560 -4600 -4600.00000000115 -4760 -4840 -4919.99999999942 -4920 -4799.99999998467 -4320.00000005123 -4959.99999999484 -4920 -4920.00000000463 -4920.00000000522 -4920 -4920 -4960 -4920 -4920.00000000533 -4920.00000000057 -4959.9999999952 -4920 -4920.00000000484 -4959.99999999456 -4960 -4959.99999999451 -4960 -4959.99999999504 -4959.99999999943 -4960 -4920 -4959.99999999943 -4959.99999999493 -4920.00000000509 -4959.99999999488 -4920 -4880.0000000109 -4920 -4920.00000000521 -4959.99999999477 -4959.99999999475 -4959.99999999472 -4920.0000000053 -4959.99999999411 -4920.00000000592 -4920.00000000057 -4920 -4959.99999999459 -4920.00000000543 -4920.00000000603 -4920.00000000057 -4920.00000000057 -4920.00000000057 -4920 -4839.99999995658 -4839.99999999885 -4800.00000000562 -4880.00000000506 -4919.99999999943 -4920 -4439.99999999943 -3359.99999994154 -1919.99999996548 -999.999999986727 -1040.00000000637 -1319.9999999977 -1760.00000000699 -2360.00000000644 -2920.00000001882 -4439.99999998071 -4599.99999999655 -4920 -4600 -4519.99999999227 -4120.0000000066 -4120.00000000662 -3799.99999999656 -2959.99999999333 -2879.99999998662 -2800.000000014 -2959.99999998882 -2919.99999999382 -2959.99999998138 -2680.00000001533 -2519.99999999891 -2320.00000002572 -2999.99999999083 -2680.00000001322 -2760 -3160.00000001331 -3319.99999999361 -3159.99999999943 -2919.99999999943 -2920.00000000115 -2880.0000000082 -3040.0000000023 -3039.99999998924 -2679.9999999969 -2560.00000000172 -2559.99999999398 -2519.99999999396 -2519.99999999279 -2519.99999999162 -2559.99999999217 -2639.99999999329 -2759.99999999155 -2720.00000000618 -2760.00000000735 -2560.00000000057 -2600.00000001307 -2760.0000000057 -2799.9999999977 -2800.00000000689 -2879.99999999943 -2879.99999999192 -3279.99999999541 -3440.00000000181 -3559.99999999368 -3440.00000000932 -3360.00000000057 -3560 -3600.00000000767 -3639.99999999655 -3400.00000000599 -3360.00000001318 -3439.99999999655 -3599.99999999656 -3799.99999997716
-480 -680.000000002029 -2960.00000000205 -4040 -4280.00000001534 -4520 -4560 -4600 -4679.99999999945 -4720 -4720 -4720 -4720.00000000283 -4760 -4760.00000000055 -4800 -4799.99999998958 -3120 -3079.99999999835 -3039.9999999989 -3119.99999999945 -3159.9999999989 -3479.99999998586 -3319.99999999582 -3279.99999999835 -3280.00000000313 -3359.99999999945 -3400.00000000262 -3439.9999999957 -3479.99999999945 -3599.99999999187 -3520.00000000979 -3679.99999999506 -3840.00000000276 -3920.00000000278 -4039.99999999554 -4039.99999999662 -4199.9999999955 -4199.99999999945 -4160 -4199.99999999598 -4160.00000000349 -4239.99999999483 -4319.99999999945 -4199.99999999945 -4240.00000000716 -4240.00000000721 -4199.9999999989 -4120.0000000031 -4160 -4120.0000000037 -4240.00000000151 -4359.9999999935 -4520.00000000532 -4799.99999999614 -4839.99999999945 -4839.99999999724 -4479.9999999967 -4240 -4160 -4239.9999999989 -4200.0000000056 -4719.99999999724 -4839.99999999779 -4839.99999999323 -4919.9999999989 -4920.00000000296 -4800.0000000011 -4800 -4800 -4760.00000000139 -4120.00000003307 -4359.99999998322 -4399.99999999744 -4520.00000001365 -4639.99999999629 -4600.00000000912 -4639.99999999569 -4600.00000000488 -4679.99999998583 -4560.00000000055 -4680 -4720.00000000055 -4880.00000000389 -4920.00000000502 -4919.99999999551 -4919.99999999494 -4920 -4960 -4959.99999999945 -4959.99999999945 -4920 -4959.9999999948 -4960 -4959.99999999532 -4959.99999999474 -4960 -4920.00000000475 -4920 -4920 -4920.00000000055 -4920 -4920.00000000542 -4960 -4920 -4920.00000000493 -4959.99999999945 -4920.00000000498 -4920.00000000055 -4959.99999999945 -4920.00000000505 -4920.00000000562 -4920.00000000564 -4959.99999999433 -4920.00000000055 -4919.99999998968 -4760.00000000518 -4880 -4920 -4920 -4920 -4920.0000000053 -4959.99999999468 -4959.99999999411 -4959.99999999408 -4920 -4920 -4920 -4920.00000000546 -4919.99999999452 -4719.99999999395 -4719.99999999337 -4680.0000000183 -4920 -4959.99999999441 -4920.00000000055 -4920.00000000055 -4920 -4920 -4920 -4559.99999998787 -3640.00000005122 -3599.99999998871 -2160.00000006351 -2039.99999997506 -2319.99999999669 -3480.00000003409 -3880.00000001178 -4599.99999998542 -4840 -4920 -4920.00000000055 -4920 -4920.00000000055 -4959.99999999945 -4759.99999998234 -4399.99999999335 -4359.99999999443 -4199.99999999449 -3720.00000000616 -3639.99999999271 -2999.9999999709 -1360.00000001301 -1440.00000000055 -1599.99999999372 -1840.00000003149 -2719.99999999699 -2839.99999999255 -3080.00000000637 -3159.99999999527 -2759.99999999248 -2720.00000001765 -2920.0000000048 -3120.00000001186 -3040.00000001301 -2999.99999998042 -2559.9999999929 -2759.99999999453 -2639.99999999341 -2239.99999999393 -2200.00000001383 -2399.99999999389 -2600.00000000668 -2800.00000001902 -3119.99999999835 -3399.99999999104 -3280.0000000141 -3399.9999999842 -3199.99999998525 -3079.99999998466 -3160.00000001428 -3119.99999998677 -2960.00000000912 -2799.99999998613 -2640.00000002198 -2599.99999999137 -2719.9999999871 -2119.9999999854 -1919.99999999846 -2279.99999999247 -2440.00000000276 -2520.00000002576 -2720.00000000935 -3040.0000000011 -2840.00000000276 -2920.00000002383 -3120.00000000833
-360.000000003087 -1760.00000001701 -3080 -3200.00000002416 -4479.99999999947 -4480 -4520 -4560 -4560 -4560.00000000329 -4640 -4680.00000000281 -4759.99999999894 -4760 -4760 -4760 -4760.00000000345 -4800 -4520.00000000317 -3959.99999999947 -4599.99999999947 -4520.00000000053 -3920.00000000223 -3920.00000000159 -3920.0000000031 -3959.99999999947 -4039.99999999579 -4039.99999999947 -4119.99999999894 -4080.00000000696 -4159.99999999947 -4239.99999999894 -4279.99999999947 -4320.00000000278 -4360.00000000053 -4440 -4440 -4440 -4440.00000000053 -4440.00000000344 -4560.00000000135 -4720.00000000888 -4839.99999999789 -4840 -4840 -4840 -4840 -4840 -4840.00000000312 -4879.99999999947 -4839.99999999947 -4919.99999999947 -4919.99999999947 -4880 -4800.00000000484 -4919.99999999619 -4719.9999999967 -4559.99999999947 -4559.99999999454 -4560.00000000337 -4639.99999999947 -4720 -4720.00000000397 -4640.0000000186 -4760 -4760 -4680 -4479.99999999592 -3840 -2759.99999999703 -2599.99999999902 -2800.00000000887 -3000.00000001209 -3719.99999995836 -4519.99999998728 -4559.99999999627 -4600.00000000481 -4640.00000000378 -4599.9999999963 -4639.99999998641 -4719.99999999947 -4920.00000000281 -4960 -4959.99999999503 -4920.00000000053 -4920.00000000502 -4959.99999999947 -4959.99999999546 -4920.00000000509 -4920.00000000053 -4920 -4760.00000000516 -4959.99999999482 -4959.99999999481 -4960 -4920.00000000471 -4920.00000000526 -4920 -4959.9999999947 -4959.99999999467 -4920.00000000535 -4920.00000000053 -4920.00000000053 -4920.00000000053 -4959.99999999947 -4920 -4920 -4920.00000000053 -4840.00000001106 -4920.00000000053 -4959.99999999947 -4920.00000000053 -4920.00000000053 -4959.99999999436 -4920.00000000514 -3960.00000002248 -4959.99999999482 -4920.00000000053 -4959.99999999424 -4920.00000000578 -4920.00000000053 -4920.00000000053 -4920.00000000585 -4920 -4920 -4920 -4840.00000001188 -4920 -4839.99999999947 -4719.99999999452 -4760 -4840 -4920 -4920.00000000053 -4959.99999999441 -4959.99999999386 -4920.00000000564 -4959.99999999381 -4959.99999999432 -4920 -4920 -4920.00000000575 -4920 -4920.0000000058 -4919.99999999894 -4639.99999999577 -4920 -4920 -4920.00000000591 -4920.00000000646 -4920.00000000053 -4920 -4920.00000000053 -4959.99999999397 -4920 -4920 -4959.99999999391 -4879.99999994548 -3160.00000000464 -2599.99999996726 -1559.99999995618 -720.000000003172 -960.000000005701 -519.999999999471 -240.000000011494 -280.000000014182 -840.000000042155 -1079.99999999418 -1559.99999997398 -2040.00000004256 -2439.99999999517 -2519.99999999083 -2600.00000002096 -2839.99999999511 -2879.99999999455 -2439.99999999453 -2199.99999999504 -2040.00000000657 -1760.00000000211 -1680.00000000979 -1519.9999999745 -1399.99999998985 -1720.0000000176 -1799.99999997634 -2440.00000000317 -2760.00000000106 -2559.99999999745 -2399.99999999584 -2320.00000000788 -1720.00000002318 -1640.00000000475 -1480.00000000106 -1479.99999999894 -1119.99999998983 -839.999999997272 -480.000000027285 -520.000000009646 -519.999999991917 -440.000000016212 -199.999999993986 -160.000000007623 -120 -560.000000002643 -600.000000005815 -800.000000033498 -1040.00000000879 -880.000000010402
-479.999999999494 -2440.00000000982 -3120 -4039.99999999949 -4519.99999999949 -4520 -4599.9999999968 -4599.99999999949 -4639.99999999949 -4679.99999999673 -4720 -4720 -4720 -4720 -4720 -4720 -4760 -4799.99999999655 -4799.99999999653 -4799.99999999701 -4800 -4800 -4800.00000000306 -4799.99999999384 -4800 -4839.99999999798 -4760 -4720 -4680.00000000152 -4879.99999999697 -4799.99999999747 -4880.00000000276 -4919.99999999949 -4919.99999999949 -4920 -4920.00000000386 -4920 -4920 -4920.00000000051 -4920 -4920 -4920.00000000349 -4920.00000000351 -4920 -4920 -4920.00000000358 -4880 -4920 -4959.99999999635 -4920 -4959.9999999963 -4840.00000000845 -4919.99999999899 -4840 -4800.00000000051 -4919.99999999137 -4840.0000000005 -4840 -4839.99999999562 -4799.99999999408 -4520.00000000443 -4760 -4760 -4760.00000000399 -4719.99999999649 -4359.9999999652 -3080.00000001471 -2919.99999997754 -3199.99999996717 -3160.00000000724 -3280.00000001245 -3680.00000000417 -3920.0000000089 -4200.00000000523 -4439.99999999152 -4320.00000000051 -4479.99999999949 -4520 -4840.00000000765 -4960 -4960 -4920.0000000044 -4959.99999999949 -4959.99999999949 -4920.00000000447 -4959.999999995 -4959.99999999949 -4959.99999999496 -4639.99999995289 -3519.99999999744 -3720.00000007058 -3000.00000000513 -2920.00000002375 -4920 -4960 -4920.00000000521 -4920 -4839.99999999949 -4880.00000000477 -4920.00000000051 -4959.99999999949 -4959.99999999465 -4920.00000000487 -4959.99999999949 -4920 -4920.00000000051 -4040.00000005523 -4920 -3759.99999995965 -1440.0000000458 -2280.00000001262 -1839.9999999792 -1479.9999999939 -1320.00000000512 -1279.99999999436 -1240 -2280.000000022 -4880 -4920 -4920 -4960 -4960 -4959.99999999949 -4959.99999999415 -4920.00000000537 -4920.00000000051 -4920.00000000051 -4959.99999999457 -4920 -4920 -4839.99999987895 -4879.99999999447 -4920.00000000555 -4920.00000000051 -4960 -4920.00000000612 -4920.00000000051 -4920.00000000051 -4920.00000000051 -4920 -4920 -4919.99999999425 -3960.00000000759 -4040.00000005296 -4920.00000000051 -4959.99999999416 -4920 -4920 -4920 -4919.99999999949 -4920 -4920 -4759.99999989998 -3240.00000000313 -2600.00000000757 -2399.99999998229 -2200.00000002081 -2279.99999994238 -1119.99999999639 -279.999999995862 -120.000000000506 -80.0000000010118 -240.000000005724 -80.0000000010118 -39.9999999937245 79.9999999937017 119.999999999494 39.9999999984823 5.35465005660942e-09 -240.000000015308 -679.999999995106 -599.999999996095 -520.000000003541 -600.000000028956 -839.999999984033 -560.000000009055 -520.000000002024 -199.999999988376 119.999999950808 -559.999999978633 -359.999999973443 -200.00000003019 -520.000000006685 -360.000000013921 -520.000000000506 -760.000000027012 -719.999999986954 -439.999999988933 -479.99999999672 -280.000000016217 -159.999999990314 -120.000000006384 -1.23066001834566e-08 -279.999999993065 -39.9999999915246 -39.9999999955492 79.9999999919851 119.999999991962 199.999999992446 80.0000000055536 200 239.999999992377 239.99999999286 40 119.999999991803 -160.000000000506 -80.0000000154728
-840.000000014865 -2760.00000000306 -3120 -4000 -4440 -4440.00000000048 -4480.00000000318 -4520 -4560 -4600 -4600.00000000279 -4640 -4600.00000000331 -4679.99999999666 -4640 -4680 -4760 -4760 -4760 -4760 -4760.00000000301 -4800 -4760.00000000354 -4800 -4800.00000000359 -4800 -4800.00000000363 -4840 -4840 -4840.00000000322 -4840 -4879.99999999952 -4920 -4920 -4920 -4920 -4920 -4920 -4920 -4920 -4920 -4920 -4920 -4920.00000000402 -4959.99999999596 -4920 -4879.9999999964 -4719.99999999468 -4799.99999999635 -4720.00000000464 -4840 -4760 -4720.00000000048 -4640.00000000753 -4720.00000000806 -4760.00000000381 -4799.99999999665 -4760.00000000048 -4800.00000000388 -4679.99999999707 -4599.99999998872 -3999.99999999155 -3880.00000000397 -3799.99999998803 -3639.99999999454 -2879.99999999645 -2400.00000000048 -2079.99999999688 -2400.00000000604 -3079.99999999539 -3560.00000000367 -3680.00000000097 -3959.99999999161 -4040.00000000844 -4280.00000000569 -4959.99999999332 -4920.00000000477 -4959.99999999569 -4920 -4920.00000000048 -4920 -4959.9999999956 -4959.99999999952 -4920.00000000048 -4920 -4520.00000002728 -4639.99999999645 -3400.00000005502 -2999.99999999544 -3279.99999999735 -2439.99999999272 -2560.0000000348 -4880.00000000465 -4920.00000000466 -4919.9999999958 -4959.99999999952 -4959.99999999952 -4920 -4799.99999996706 -4759.99999999617 -4759.99999999518 -4640 -3839.99999999313 -3720 -2999.99999994582 -640.000000002314 -280.000000009913 -239.99999999855 -360.000000000966 -279.999999938734 280.000000003598 440 760.00000000922 720.000000006082 759.999999996618 -960.000000011289 -1399.99999998396 -1519.99999999624 -1719.99999999332 -2520.00000005845 -4719.99999999569 -4880.00000000048 -3480.00000017702 -4719.99999999079 -4759.99999999082 -4759.99999998647 -4759.9999999857 -4680.0000000192 -4839.99999999503 -4759.9999999826 -4719.99999998803 -4640.00000000048 -4720.00000000651 -4920 -4920 -4920 -4880.00000000048 -4679.99999997024 -4720.00000000097 -4679.99999999478 -2720.00000006979 -1919.99999996118 -879.999999997124 -480.000000001933 -440.00000001744 -480.000000012608 -560.000000029746 -839.999999990638 -719.999999993491 -480.000000008833 -640.000000008856 -679.999999993054 -519.999999990894 -519.999999995907 -600 -519.999999999034 -280.00000000145 -320.000000000483 79.9999999867555 5.19548848387963e-09 79.9999999985505 -9.66338120559087e-10 -159.999999992804 40.0000000125056 280.000000005792 440.000000006298 600.000000006804 599.999999980002 480 560.000000003973 439.99999999855 80 159.999999992576 -39.9999999944862 -6.98605617783859e-09 319.999999999034 320.000000000966 399.999999993912 360.000000008043 199.999999980633 8.0197745326485e-20 7.14521775056459e-09 39.9999999995168 39.9999999803606 -119.999999986539 -9.66338120715637e-10 40.0000000048431 119.999999994168 159.999999999034 279.999999991707 120.000000007833 239.999999992627 239.999999999034 79.9999999935483 160.000000013432 199.999999999034 160.000000007003 80.0000000070258 319.999999992468 280 360.000000006611 399.999999985766 200.000000000483 120.000000008129 240.000000000483 160.000000007691 240.00000000723
-800.000000009055 -1960.0000000035 -2520.00000000398 -3240.0000000287 -3840.0000000106 -4320 -4280.00000000362 -4320 -4400.0000000032 -4440.00000000046 -4480.00000000046 -4519.99999999719 -4520.00000000046 -4560.00000000331 -4640 -4720.00000000046 -4720 -4680.0000000034 -4720.00000000046 -4720 -4720 -4720 -4759.99999999648 -4760 -4760.0000000031 -4799.99999999687 -4800 -4800 -4800 -4800 -4800.00000000324 -4839.99999999954 -4800.00000000046 -4840.00000000331 -4840.00000000333 -4840 -4879.99999999616 -4919.99999999614 -4919.99999999223 -4879.99999999954 -4880.00000000046 -4920 -4880 -4800.00000000046 -4840 -4719.99999999596 -4600.00000000138 -4440.00000000455 -4400.00000000549 -4440.00000000046 -4200.00000000092 -4160.00000000138 -4520.00000000046 -4480 -4399.99999999714 -4360.00000000046 -3999.99999997885 -3720.00000002618 -3040.00000000894 -2719.99999999106 -2280.00000001891 -1920.00000000809 -2680.00000001282 -2839.99999999601 -2840.00000000895 -2520.00000000276 -1999.99999998736 -1600.00000001817 -1919.99999999954 -2360.00000000138 -2679.99999999815 -2800.00000001249 -2960.00000000553 -4959.99999999532 -4959.99999999576 -4959.99999999954 -4920.00000000046 -4959.99999999523 -4920.00000000046 -4920 -4919.99999999954 -4959.99999999514 -4920 -4840.00000000092 -4039.99999999613 -3760.00000000046 -3720 -3040.00000002768 -1239.99999997914 -640.000000006423 -719.999999988489 -1800.00000000785 -2239.99999996096 -1880.00000001479 -1879.99999999009 -2720.00000000102 -1640.00000000552 -1080.00000008049 -1679.99999999615 -1479.99999998246 -119.999999983942 -199.999999989393 -119.999999996515 -319.999999983493 -120.00000000752 1.92756033354738e-08 -200.000000004496 -239.999999979622 200.00000000046 760.000000004104 959.999999972459 640.00000000415 839.999999998619 439.999999999079 120.000000017718 280.00000000332 -39.9999999943554 39.9999999995396 -440.000000008288 -1319.99999999429 -1240.00000000092 -1320 -1319.9999999956 -1400.0000000058 -1360.00000000046 -1640.00000000631 -1559.99999999551 -1440.00000000912 -1639.99999998264 -1480.0000000064 -1440.00000000504 -1440.00000000599 -1600 -1680.00000000138 -1640.00000000138 -1560.000000007 -1560.00000000564 -1519.99999999908 -559.999999991235 -319.999999995214 -359.999999995651 -280.000000008976 -239.999999994225 -80.0000000004604 -159.999999998619 -319.999999999079 -400.000000010812 -279.999999999079 -559.999999996317 -400.00000001279 -479.999999994043 -319.99999999448 39.9999999995396 119.999999993514 80 120.00000000561 199.99999999954 160 279.999999987261 280.000000005701 360.000000005724 440.000000018161 600.00000000046 679.999999993287 400.000000001842 279.999999987403 200 320.000000005883 400.00000000046 440 479.999999993588 399.999999994026 440.000000000921 239.999999994441 160.00000000046 160 -40.0000000135572 -359.999999999079 -359.999999992485 -280.00000000046 -119.999999993821 -39.9999999942588 -120.000000012909 -80 40.0000000058094 120.00000000046 159.999999993685 120.000000013597 199.999999993179 239.999999986312 399.999999986267 319.9999999853 199.999999999079 7.39532879379364e-09 -120.000000014376 40.0000000074408 159.999999993457 160.00000000046 440.000000014558 599.999999992929 519.999999992446 79.9999999795705 40.0000000089813 -199.999999992377 319.999999999079 360 159.99999999369
-520 -680.000000003894 -1000.00000000219 -1280.00000000525 -1040.00000000878 -1200.00000002833 -2679.99999999731 -2640.00000000088 -2920.00000001227 -3240.00000000626 -3360.00000000716 -3960.00000000306 -4160.00000000741 -4400.00000000044 -4440.00000000044 -4480.0000000029 -4640 -4640 -4600 -4600.00000000044 -4600.00000000301 -4640 -4640 -4720 -4720 -4720 -4680.00000000044 -4720.00000000317 -4720.00000000044 -4720 -4720 -4760.00000000696 -4800 -4800 -4800 -4800 -4839.99999999662 -4840 -4840 -4840 -4759.99999998354 -3519.99999999872 -1680.00000000393 -1239.99999999731 -879.999999989763 -720.000000008913 -559.999999995418 -240.000000004502 -400.000000003064 -359.999999997641 -319.999999994992 -200 -560.000000004417 -679.999999992912 -480.000000000875 -200.000000005559 -120.000000003394 -79.9999999957083 -319.999999995686 -199.999999999562 -39.9999999973909 39.9999999951797 -80.0000000061561 -200.000000001751 -8.90167939351546e-09 -120.000000004377 -39.9999999959414 -119.999999995919 -80.0000000041041 -80 -79.9999999995623 -160.000000000438 -840.000000015649 -2080.0000000156 -3160.00000001343 -3840.00000000263 -3920.00000000647 -3960.00000000175 -3960.00000000175 -3960.00000000175 -4000.00000000613 -3760.0000000079 -3760 -3759.99999999555 -3640.00000000087 -1839.99999999835 -879.999999998113 -239.999999996777 -80.0000000004377 -80 -40.0000000008754 -279.999999994935 -400.000000002899 -560.000000000438 -840.000000021362 -560 -200.000000000438 -199.999999961545 1.12606812763258e-08 159.999999999125 239.999999996055 200.000000010999 279.999999994697 359.999999998687 479.999999988427 359.999999989257 160.000000004081 319.99999999327 360.000000027637 680.000000010925 1000.00000000044 1399.99999999825 1120 719.999999979974 560.000000000875 759.999999999562 919.999999994378 800.000000005207 640.000000000438 359.999999989495 239.999999994287 39.9999999955776 1.06410880106856e-08 279.999999988438 200.000000000438 119.999999998687 -120.000000005849 -200.000000000438 -199.999999995418 -120.000000000438 -159.999999999562 -280.000000005525 -599.999999994014 -480.000000005571 -640 -639.999999999562 -560.000000005639 -520.000000005224 -480 -200.00000001229 -120.000000006168 -40.0000000061902 -39.9999999933493 -119.999999987966 -359.999999999562 -320.000000011687 -440.000000000438 -360.000000000438 -8.10018718760322e-09 -40.0000000013131 -160 -80.0000000008754 -79.9999999995623 -6.46309672434421e-09 40.0000000064858 39.9999999995623 119.999999999562 320.000000010044 360.000000012716 599.9999999934 559.999999981884 279.99999999423 79.9999999791214 -840.000000020071 -719.999999967309 -159.999999986528 360.000000006321 360.000000000438 159.999999986829 -439.999999999562 -760.00000000685 -839.99999999269 -599.999999986647 -120.000000000438 -40 -80.0000000004377 -200 -400 -319.999999992968 -319.999999999562 -199.999999993361 -320.000000006224 -280 -200.00000000627 -200 -119.999999985181 -79.9999999995623 -40.0000000067985 39.9999999931788 -79.999999984999 39.9999999926956 -39.9999999931106 120 160.000000000438 39.9999999926047 -119.999999993895 -79.9999999859938 160.000000000438 279.999999998687 239.999999999562 319.999999993781 -639.999999989382 -799.999999978581 -360.000000007162 -119.999999999562 -200.000000000438 40.0000000063551
-520 -519.999999997419 -480 -479.999999994748 -400 -399.999999996913 -360.000000002694 -360 -360 -600.000000009948 -1000.00000000682 -1320.00000000686 -1720.00000000041 -2080.00000000737 -2480.00000000329 -3760.00000000414 -3320.00000000375 -3280.00000000377 -3320.0000000067 -3440.00000000332 -3599.99999999688 -3959.99999999945 -4120.00000000373 -4159.99999999508 -4240.00000000352 -4280.00000000083 -4200.00000000207 -4320.00000000041 -4360.00000000083 -4320.00000000809 -4600 -4680.00000000041 -4600.0000000074 -4600.00000000331 -4760 -4760 -4360.00000000077 -3799.9999999782 -2039.99999999679 -1000.0000000029 -560.000000004712 -280.000000003905 -360.00000000083 -279.999999999585 -400 -400 -519.999999998755 -440.000000004042 -439.999999988222 -320.000000005332 -280.000000004525 -360.00000000083 -280 -240 -239.999999991184 -160 -199.999999999585 -279.999999996561 -280.000000000415 -280.000000005559 -360.000000008674 -480.000000004775 -440.000000004798 -399.999999996425 -239.999999996402 39.9999999975103 -40.0000000110219 -520.000000003666 -719.999999999585 -600.000000000415 -679.999999991701 -240.00000000083 -240.00000000083 -200.000000005048 -199.999999996589 -200.000000004678 -200.00000000083 -200.000000009032 -319.999999996913 -280.000000006014 -200.000000001245 -319.9999999956 -319.999999994748 -320.000000000415 -280.000000000415 -320.000000004076 -360 -280 -240 -279.999999995418 -200.000000001245 40.0000000029672 -1.24487087310036e-09 239.999999993264 -79.999999996561 -199.999999993634 -40.0000000047294 -199.999999985744 39.999999999585 279.999999994787 519.999999994765 759.99999999834 600 680.000000001245 640.000000000415 200.000000010698 559.999999990916 199.999999995021 279.999999999585 639.999999995805 360.000000005878 759.999999996174 640 639.999999994469 640.000000000415 640.000000016314 679.99999999917 600.000000004377 639.999999994355 559.999999989495 799.99999999514 599.999999997925 759.99999999385 919.99999999917 719.999999982242 519.999999980929 -200 -160 -79.999999999585 -280.000000022334 -520.000000005502 -679.99999999406 -720.000000005548 -639.999999988029 -280.000000006008 -240.000000006861 -400.000000006469 -239.999999995168 -40.0000000008299 4.46220838051412e-09 -39.999999999585 -160 -119.999999987205 -39.999999999585 -39.9999999883585 -40 -39.9999999878526 -80.0000000012449 160.000000005497 -6.34940988663129e-09 -4.14956957622241e-10 119.99999999319 120.000000006003 199.999999999585 280.000000006463 239.999999999585 360.000000000415 560.000000006531 680.000000006139 559.999999993838 359.999999988046 199.999999994208 79.99999999377 40.000000000415 -6.51016991473819e-20 -4.1495695768404e-10 40 80.0000000067587 160 160 120.000000006827 199.99999999232 160.000000006457 159.999999993105 160.000000006918 80.0000000069406 6.13340489494741e-09 -80 -199.999999992576 -400.000000013233 -519.999999979252 -360.000000007077 -320.000000000415 -320.000000006708 -400.0000000059 -360.000000006338 -280.000000006361 -199.999999999585 -159.999999992349 -40 -40.000000000415 -79.9999999926956 39.9999999991701 159.9999999853 160.000000006958 160 239.999999992167 319.99999999917 479.999999984658 40.0000000074863 319.99999999917 279.999999983692 -279.99999999286 -200.000000007577 -159.999999993645 -399.999999986414 -79.9999999919396
-440.000000000392 -439.999999997419 -399.999999999608 -360.000000003018 -360 -399.999999999608 -400 -400 -400 -440.000000002763 -480.000000003178 -480.000000000784 -640.000000003615 -840.000000003638 -1200.00000000118 -1480.00000000894 -1840.0000000119 -2240.00000000157 -2600.00000000414 -2640.00000000417 -2760.00000000419 -2760.00000000235 -2760.00000000463 -2960.00000000196 -3159.99999999807 -3319.99999999414 -3240.00000000433 -3319.99999999483 -3360.00000000359 -3319.99999999513 -3080.00000000923 -2959.9999999987 -2080.00000000878 -1839.99999998194 -720.000000001768 -519.999999997038 -320.000000000784 -279.999999996993 -240.000000007236 -280.000000003837 -400.000000006935 -599.999999995333 -480.000000001177 -279.999999996857 119.999999998823 360.000000005986 600.000000003212 879.999999998823 759.999999997647 440.00000000656 800.000000001734 519.999999977302 199.999999976984 40.0000000063494 800.000000006003 1119.99999999843 1280.00000001336 1520.0000000177 1640.00000000618 1880.00000001364 1759.99999998902 1879.99999999331 1559.99999999368 1360.0000000072 1439.99999999285 1320.0000000009 1600.00000000249 1320.00000000094 1079.99999999393 599.999999994492 720.000000004769 760.00000000378 799.999999998823 839.999999984993 279.99999998571 399.999999928991 -440 -200.000000010186 -119.999999995669 -320.000000004354 -239.999999987261 -280.000000000784 -279.999999996754 -599.999999995555 -599.999999989888 -120.000000000784 -200 -79.9999999859995 80.0000000045588 239.999999995026 239.999999994611 279.999999993804 480.000000003473 480 440.000000005076 160.000000009021 -5.51381162945254e-09 39.9999999944635 79.9999999992156 120.000000004405 359.99999999518 399.999999995157 159.999999994742 120.000000005673 280.000000000392 159.99999999585 560.000000002211 679.999999994628 519.999999994998 360.000000005417 319.999999995737 279.999999994537 480.000000010971 480.000000005508 560.000000000392 560 559.999999999608 439.999999995185 359.999999995163 160.000000028223 359.99999998945 720.000000006082 1080.00000001557 1360.00000000534 1199.99999999843 839.999999988438 440.000000004235 159.999999982913 -479.999999994543 -360.000000001177 -840 -760.000000007094 -519.999999988904 -119.999999994429 120.000000005986 80.0000000052239 200.000000000392 120.000000000392 80 40.0000000118064 240.000000012244 399.999999992679 360 280 240 239.999999999608 279.999999993349 200.000000005497 159.999999999608 160.000000000392 160 160.000000000392 160 160.000000006025 319.99999999356 320 359.999999987028 160.000000006509 -80.0000000061391 -199.999999987676 -239.999999986454 -200 -80.0000000007844 119.999999999608 119.999999999216 120 119.999999999608 120.000000000392 120 160 160 160 80.0000000072419 80.0000000003922 80.0000000003922 -80.0000000057412 -359.999999998823 -439.999999992644 -239.999999992622 -40.0000000003922 -80.0000000132786 -439.999999993338 -360.000000007077 -440.000000000392 -480.000000007122 -480 -440.000000000392 -439.999999993202 -320.000000000392 -319.999999993156 -200.000000013733 -199.999999992718 3.92219590139709e-10 240.000000006935 119.999999994219 160.00000000698 359.999999999608 200.000000005849 239.999999993736 199.999999999608 160.000000007094 120 319.999999986113 359.999999992445 279.999999992423 -120.000000007208 -599.999999998823
-440 -440 -440 -400.000000002626 -400 -400.000000002672 -400 -400.00000000037 -400 -400 -360 -360 -360 -360 -360 -360.00000000037 -400.000000000739 -480.00000001105 -1000.00000000408 -800.000000002217 -720.000000010516 -640.000000004883 -760.000000005645 -1280.00000000493 -1559.99999999453 -1679.99999999596 -1800.00000000018 -1720.00000000576 -1280.00000000333 -519.99999999863 -319.999999997129 -320 -280 -280 -200.000000003701 -160 -200 -160.00000000303 -240.000000004997 -439.999999995447 -439.99999999963 -320.000000004599 -399.999999996487 -239.999999995356 40.0000000082252 200.00000000432 399.999999992792 519.99999999963 719.999999998892 1320.00000001139 1439.99999999631 1119.99999998254 1280.00000000337 1199.99999998908 600.000000006833 840.000000001848 1040 1079.99999999762 1200.00000000425 1160.00000000074 1239.99999999608 960.000000005792 1080.00000000978 1240 1120.00000000987 1120.00000000111 1280.00000000148 1520.00000000074 1479.99999999479 1600.00000000751 1479.99999999059 1640 1719.9999999947 1480 1360.00000000313 1320.00000001168 1040.0000000164 1359.9999999755 1800.00000000037 2040.00000000715 2120.00000000469 1759.9999999952 1159.99999998894 839.999999989632 239.999999990325 160.000000007873 680.000000007918 479.999999993247 399.999999999261 600.000000004951 800.000000003865 1239.99999999852 1479.99999999963 1279.99999999497 959.999999990263 560.000000004337 519.999999995271 599.999999994878 600.00000000037 519.999999995202 279.99999999518 279.999999994787 159.999999995134 3.41060513169341e-09 319.999999989438 320.00000000037 480.000000009544 879.999999993912 920.000000005741 800 479.999999989166 359.999999993082 40.0000000003695 -39.9999999893987 240.000000010647 560.000000005161 720.00000000889 599.999999999261 479.999999998892 439.999999994009 319.999999995094 240.000000010965 600.00000000606 959.999999995026 719.999999984641 599.999999999261 559.999999996436 119.99999998987 -440.000000010175 -560.000000011698 -839.999999994128 -680.000000000369 -399.999999983356 40.0000000059401 79.9999999944066 79.9999999996305 200 320.000000011693 479.999999993577 360.000000006077 600.00000000573 600 440.000000006514 440.00000000037 400.00000000037 400 400 399.999999994111 359.999999994088 320 320 280 279.999999999631 279.999999999631 320 320.000000006071 320.000000006463 399.999999993145 199.999999993491 39.9999999988916 39.9999999996305 80.0000000062073 280 360.000000006622 279.999999993724 120.000000006668 -40.0000000059515 -239.999999999261 -280.000000005258 -239.999999999261 -239.99999999248 -159.999999985283 -79.9999999988916 -160.000000018332 -480.000000011897 -679.999999999261 -759.999999992343 -759.99999999232 -479.999999986812 -239.999999993383 -159.999999999631 -200.000000000369 -320 -400.000000007077 -440 -360.00000000037 -400 -239.999999993202 -199.999999993548 -119.999999993526 -120 -160.000000000369 -239.999999993088 -400.00000001387 -479.999999993412 80.0000000003695 200.000000007003 279.99999999963 320 440.000000014882 439.999999994753 440.00000000037 479.99999999963 519.999999992468 319.999999992815 -80.0000000231012 -440
-440 -400 -400 -400 -400 -400 -359.999999997306 -280.000000000347 -319.99999999726 -319.999999996891 -320 -359.999999996845 -320.000000002831 -360.000000002854 -399.999999999307 -479.999999996754 -400.00000000619 -559.999999999307 -560 -639.999999999653 -560 -600.000000003035 -560 -400.000000000347 -399.99999999655 -440.000000000347 -399.999999999653 -439.999999996135 -480.000000000347 -440.000000000347 -400.000000003587 -279.99999999639 -280.000000002939 -400 -360.000000006662 -439.999999996646 -360.000000004417 -119.999999996948 -4.11546352552293e-09 -120.000000004832 160.000000005548 840.000000022351 1239.99999998807 1639.99999999438 1160.00000000712 1439.99999999746 1080.00000001289 1359.99999999811 1120.00000000035 959.99999998829 680.000000002427 480.000000004064 640.000000004434 679.999999996237 559.999999996908 519.999999999307 640.000000003831 640.000000000347 760 759.999999999653 799.999999995731 599.999999996402 600.000000004314 799.99999999601 639.999999997027 640.000000004383 680.000000003712 720.00000000851 679.999999997283 919.999999995873 960 960.000000000347 960.00000000943 1200.00000000035 1439.99999999576 1360.00000000035 1480 1480 1519.99999999168 1479.99999999669 1560.00000000611 1559.99999999699 1399.99999999592 1239.99999998528 879.999999995185 760.000000005184 760.000000006247 759.999999996504 759.999999986323 720.000000003888 1320.00000000782 1279.99999999144 879.999999996044 1239.99999999965 1079.99999999497 840.00000000976 919.999999999307 879.999999999653 1079.99999997951 799.999999999653 679.999999999306 520.000000004843 520.000000004519 559.999999999307 639.999999994395 719.999999998266 759.999999989393 759.999999990041 519.999999993958 600.000000000347 200.000000000347 160.00000000507 119.99999999456 80.0000000047692 240 320.000000000347 640.000000005531 839.999999999307 1119.99999999269 840.000000004212 400.000000000347 79.9999999844533 -199.999999999307 39.9999999996533 1.10787823359257e-08 -80.000000005042 -439.999999988137 -479.999999993179 -480.000000000347 -640.000000005133 -520.000000006196 -320.000000005525 80 80 279.999999993366 600.000000010539 839.999999998266 480.000000010976 520 480.000000000347 520 479.999999994594 400 440 440 440 440.000000000347 440 440 439.999999999653 439.999999999653 359.999999993673 319.999999993304 320.000000012398 439.999999999653 399.999999999653 439.99999999356 440 399.999999999653 280 200.000000006185 200.000000006554 360 320 320 279.999999993008 199.999999993332 79.9999999866191 -200.000000007753 -519.999999994304 -640.000000013864 -959.999999999653 -1080.00000000611 -1119.99999999965 -1079.9999999935 -919.999999993474 -1039.9999999931 -879.999999993429 -800 -559.999999999653 -160 40.0000000070088 120.000000007032 119.999999999653 119.999999992923 -79.9999999996533 -199.999999999653 -240 -239.999999999653 -319.999999992463 -320.00000000652 -520.000000006889 -560 -639.999999992372 -640.000000014262 -639.999999985692 200.000000014006 279.999999999653 119.99999998625 -120.000000014143 -400.000000000347 -120.000000000347 120.000000007833 -6.81552592134705e-09 40.0000000078785 40 -159.999999985539
-480.000000002558 -400 -320.000000000324 -319.99999999705 -280 -280 -280 -320 -360 -399.999999999676 -439.999999999676 -480 -560 -640.00000000253 -679.999999999676 -799.999999996777 -680.000000003246 -720.00000000262 -680.000000002967 -719.999999999676 -640.000000000324 -519.999999997289 -360 -320.000000003405 -319.999999994117 -280.000000000324 -240.000000003797 -279.999999993332 -119.999999993935 -40.0000000041894 -160.000000000324 -199.999999996413 -240 -320.000000000648 -560.000000000972 -480.000000000324 -239.999999999676 120.000000006798 240.000000007492 440.000000004093 400.00000000162 320.000000004138 240 239.999999992929 79.9999999970896 199.999999994134 280.0000000049 240.000000005895 159.999999997971 -79.9999999920078 40.0000000083617 240.000000004042 440 240.000000000972 319.999999999352 360.00000001175 439.999999996493 440.000000000648 599.999999999676 559.999999996749 600.000000000324 519.999999999676 599.999999999352 520.000000004638 559.999999995663 480.00000000436 560.000000004383 560.000000005053 600.000000004428 640.000000000648 600.000000000648 680.000000000324 760.000000000648 800.000000000324 879.999999995435 999.999999999352 1240.00000000032 1120.00000000496 1120.00000000065 1040.00000000032 1080.00000000438 1160.00000000505 1199.9999999959 1040.00000000509 919.999999999676 759.999999995185 679.999999999352 880.000000003564 919.999999999352 959.999999999352 1000.00000000953 1200.0000000043 1279.99999999438 1199.99999999968 1119.99999999499 1080 1080.00000000032 919.999999995572 720.000000000648 719.999999995202 759.999999999676 639.999999994833 519.999999990592 519.999999985334 239.999999995737 280.000000005582 559.999999995043 640.00000000498 760.00000000968 599.999999994975 599.999999999676 599.999999993634 359.999999994259 160.00000000544 279.999999999676 360 560.000000005508 719.999999994793 1040.00000000523 1239.99999998489 840.0000000211 999.999999982487 639.999999988711 199.999999990934 -399.999999987972 -319.999999993639 -799.99999999838 -960.00000000673 280.00000001059 559.999999983237 -159.999999994498 40.0000000055252 240.000000005224 439.999999994429 759.999999994083 1119.99999999341 1200.00000001821 1159.99999999466 600.00000000162 640.000000006031 640.000000000648 440 479.999999999676 479.999999993878 480 479.999999993832 479.999999999676 480.000000000324 480.000000005912 519.999999993742 519.999999993719 480 439.999999999676 440 520.000000006048 439.999999993929 120.000000006742 280.00000000644 320.000000000648 160.000000000324 159.999999993491 120.000000005883 200.000000000324 240.000000006901 280.0000000066 319.999999999676 280 199.99999999398 159.999999993634 120.000000000324 79.999999999676 39.999999999676 -80.000000000324 -320.000000000648 -440.000000013978 -599.999999986301 -680.000000006224 -720.000000007543 -880.000000000648 -920.000000000648 -919.999999999676 -919.999999999676 -959.999999999028 -839.999999999352 -839.999999999352 -680.000000006105 -759.999999999352 -799.999999999028 -679.999999993179 -599.99999999348 -479.999999999676 -559.999999999352 -679.999999999352 -520 -639.999999993042 -680 -520.000000007327 -519.999999993298 -560.000000000972 -480.000000000648 -479.999999985812 -600.000000007117 -320.000000000324 6.48014975013432e-10 -40 -159.999999984288 -120.00000000723
-639.999999997141 -599.999999997419 -520 -439.999999997374 -359.999999999699 -319.999999997027 -399.999999997004 -400 -400.00000000274 -440.000000003064 -600 -680.000000002808 -720.000000000301 -759.999999996845 -839.999999999398 -879.9999999968 -839.999999997078 -559.999999997658 -319.999999994066 -159.999999999699 -80.0000000063267 -120.000000000301 39.9999999932811 159.999999999699 199.999999996896 120.000000003729 160.000000000904 199.999999999699 239.999999999096 359.999999999699 80.0000000070827 -119.999999999699 -79.9999999904446 239.999999998795 79.9999999996987 320.000000006105 479.999999999699 160.000000000301 80.0000000003013 120.000000007191 -39.9999999984936 -40 -319.999999996186 -200.000000002632 -280 -239.999999999699 -199.999999996396 -199.999999999699 -120 -159.999999996328 -40.0000000033936 80.0000000040188 200.000000004042 159.999999995936 280.000000000301 240.000000004411 160.000000004735 280.000000003854 519.999999995521 399.999999999699 279.999999996379 360 360.000000008839 320.000000000301 439.999999995987 159.999999996265 280.000000000603 559.999999999397 680.000000004104 800 680.00000000415 760.000000003871 960.000000004195 879.999999991263 720.000000004542 760.000000005167 799.999999996618 720.000000004911 880.000000004633 1000 1040.0000000003 960.000000005303 1119.99999999588 1199.99999999141 1040.0000000006 1120 919.999999995185 800.000000000301 799.999999999699 760.00000000428 1039.9999999991 999.999999995072 920.00000000465 920.000000000301 920 960.000000004707 879.999999995271 800.000000004752 760.000000000301 839.999999995202 480.000000005122 559.999999990615 440.000000000301 439.999999995111 319.99999999539 560.000000009265 839.999999999699 920 920 919.999999999096 840.000000004746 680.000000000904 719.999999994907 639.999999985255 479.99999999456 360 400.000000004883 440.000000000301 400.000000006133 400.000000005252 279.999999990354 200.000000004695 200.000000021885 -40.0000000041382 -39.9999999776321 -559.999999995214 479.999999960312 479.999999953513 -240.000000028189 79.999999994219 279.9999999902 200.000000005826 479.999999999397 679.99999998916 840.000000005593 760.000000005616 920.000000000301 960.000000000301 839.999999999699 759.999999993992 519.999999993969 400.000000005753 440 440 480 519.999999994156 520 559.999999999699 520 560 560 560 599.999999999699 600 560 560.000000006372 520 519.999999999699 480 519.999999993236 359.999999999699 160.000000000301 120.000000006531 160 160.000000006276 120.000000006298 200 240.000000006344 280 200 199.999999999699 159.999999993565 79.9999999996987 -39.9999999996987 0 3.01270119864086e-10 -200.000000000603 -519.999999999699 -680 -840 -879.999999999699 -919.999999993037 -839.999999993014 -840.000000000301 -800 -680.000000000301 -600.000000000904 -479.999999980207 -239.999999993781 -159.999999986613 -40.0000000077705 40.0000000068894 -80 159.999999992161 40.0000000066564 200.000000006077 519.999999992394 480.000000007026 239.999999992951 160.000000006469 79.9999999929059 -80.000000007418 -360.000000014279 -559.999999993139 -239.999999992212 -360.000000013512 -519.99999999277
-760 -639.999999994839 -520.000000002882 -400.000000000557 -400.000000002927 -480 -520 -520 -480.000000002183 -519.999999999443 -560.000000003064 -839.999999999722 -1039.99999999689 -1119.99999999374 -960.000000000279 -879.999999997101 -600.000000000279 -520.000000002666 -439.999999993787 -200 -79.9999999964302 -280.000000008549 -519.999999999443 -720.000000002524 -599.999999999721 -559.999999999721 -480 -319.999999996828 -279.999999999443 -279.999999999721 -439.999999995924 -240.000000002706 -239.999999999443 -239.999999998886 -320.000000001938 -319.999999984914 -319.999999998607 -440.000000003399 -159.999999992878 -159.999999999443 -279.999999988205 80.0000000075374 -120.000000007583 -440.000000000557 -440.000000000557 -480.000000000279 -279.999999996396 -200 -200.000000004206 -120.000000000279 40.0000000031378 40.0000000074351 199.999999999721 119.999999999721 120 279.99999999647 240.000000003831 480 360.000000000279 359.999999995822 240.000000000279 319.999999999721 240.000000004246 360.000000003712 279.999999991974 279.999999999443 480.000000003223 679.999999998886 720.000000003547 759.999999999443 760.00000000415 919.999999995828 879.999999996083 720.000000000836 719.999999996038 720.000000005377 759.99999999655 600.000000001114 680.000000001114 720.000000004911 760.000000008754 880.000000004121 920.000000004701 1000.00000000445 1000 959.999999996624 839.999999996044 840.000000000557 759.999999990604 1000 920.000000004883 840.000000000279 840.000000000279 759.999999999721 800 600.000000000279 679.999999999443 760.000000003638 679.999999994947 360.000000000279 279.999999994623 320.000000009408 479.999999994577 280.00000000461 360.000000004354 480.00000000959 480.000000005514 600.000000005258 680.000000000278 919.999999994697 719.999999995231 759.999999995487 959.999999989535 879.999999995998 640.000000005974 519.999999999721 639.999999999721 1040.00000000028 840 679.999999995026 440.000000004161 79.9999999882903 520.000000027717 839.999999993821 199.999999996027 -239.999999988665 399.99999999431 360.000000000279 279.999999989365 -79.9999999988859 -320.000000004667 -399.999999993918 -279.99999998779 200.000000000279 320.000000005593 400.000000005895 640 719.999999993781 639.999999994316 440.000000000557 320.000000006008 359.999999994247 360 400.000000000279 440 480 480.000000006145 520 520 560 560 560 560 560.000000000279 560.000000000279 599.999999993929 560.000000000279 560.000000006116 559.999999993861 440 440 480 399.999999999721 319.999999993469 279.999999993167 199.999999999721 120 119.999999993378 80.000000006645 80 2.78532752418054e-10 40.0000000002785 120 160.00000000648 239.999999999721 119.999999999443 -80.0000000005571 -240 -280.000000000279 -360.000000000279 -400.000000000279 -439.999999993895 -520.000000000279 -520.000000000557 -719.999999992991 -560.000000006753 -480.000000006776 -519.999999992923 -360.000000000279 -239.999999999721 -279.999999999721 -319.999999999721 -319.999999998607 -279.999999999443 -40.000000006122 399.999999999164 400.000000006168 360 480.00000000677 399.999999999443 279.999999992627 279.999999992605 240.000000006582 39.9999999922807 -120.000000008021 80.0000000063721 240.000000007787
-560.000000003325 -480.000000000512 -479.999999999488 -600.000000002626 -640.000000002649 -520.000000002672 -480.00000000295 -359.999999997283 -359.999999999744 -360.000000002763 -799.999999999744 -1040.00000000051 -1120 -1119.99999999715 -1039.99999999687 -959.999999999744 -999.999999999744 -959.999999999744 -840 -719.999999996498 -719.999999992951 -559.999999997988 -599.999999994651 -239.999999988711 1.02318153947505e-09 79.9999999973852 5.11590769767585e-10 -39.9999999960608 -119.999999999744 -119.999999996527 -240.000000006736 -319.999999996993 -79.9999999964587 -159.999999995669 -320.000000000256 -359.999999995623 -360.000000003121 -159.999999994225 119.999999989831 119.999999999744 119.999999992809 159.99999999651 80 40.0000000032799 -5.11590769747447e-10 -40 -240.00000000386 -280.000000000512 -320 -200.000000008112 -160.000000003439 -280.000000000256 -320 -320.000000004019 -240.000000000256 -119.999999996191 119.999999999744 199.999999999744 240 279.999999996101 359.999999999744 239.999999995799 319.999999999233 359.999999999744 440.000000000256 519.999999999744 479.99999999543 600.000000000256 640 680 719.999999999744 680 600.000000004451 679.999999999744 599.99999999576 560 680.000000003774 679.999999999233 720.000000003308 1040.00000000359 1199.99999999048 1119.99999999974 1239.99999999116 1039.99999999555 1079.99999999528 920.000000005002 880.000000004769 800.000000000767 800.000000000512 719.999999990581 680.000000004604 839.999999995629 959.999999995606 919.999999995339 799.999999995316 720.000000010181 759.999999995526 720.000000005264 600.000000005286 559.999999990405 519.999999994924 400.000000000256 280.000000000512 360.000000000512 280.000000004911 239.999999999744 160 200.00000000498 360 359.999999995487 280.000000000767 280.000000010141 360.000000000256 599.999999989512 679.999999994861 520.000000000256 559.999999999744 799.999999999489 760.000000004718 999.999999999744 399.999999995492 399.999999995214 199.999999990382 80.0000000007674 120.000000000256 120.000000005389 160.00000001159 199.999999988364 199.999999999233 159.999999993497 -80.0000000052466 -119.999999994219 39.9999999994884 -39.9999999951967 -199.999999988557 -80.0000000056161 -80 6.17319528824804e-09 120.000000000512 240 239.99999999427 240.000000005753 319.999999999744 360 360.000000000256 360.000000006355 360.000000006122 480 480.000000000256 520 520 560 560.000000012517 640 600 559.999999994185 520.000000000256 560 640.000000005883 719.999999999744 719.99999999356 600.000000006463 600 599.999999999744 519.999999999488 359.999999999744 240.000000006065 -39.9999999992326 -359.999999999488 -399.999999999744 -359.999999999488 -319.999999986363 -79.9999999935426 159.99999999352 320 400 399.999999999744 320.000000006315 279.999999999744 159.999999993128 79.9999999994884 6.40625330557265e-09 -40.0000000066848 -120 -160.000000000256 -359.999999999744 -439.999999992968 -400 -399.999999993179 -400.0000000071 -480.000000006355 -479.999999985965 -319.999999999744 -320.000000006935 -439.999999999233 -119.999999999488 -199.999999992485 279.999999986971 240 160.000000000256 160.0000000147 320.000000007628 280 279.99999998542 160.000000000256 119.999999985584 39.9999999927695
