NCOLS 236
NROWS 29
XLLCORNER -35
YLLCORNER 63
CELLSIZE 0.5 
NODATA_value -9999 
200 200 200 200 189.999999996425 200 200 179.999999996197 189.999999996402 179.999999996197 200 179.999999996197 179.999999996197 160 120 120 99.9999999961972 40 19.9999999961972 30.0000000036607 10.0000000001364 0 0 0 20.0000000038028 10.000000000108 0 9.99999999629381 20.0000000036209 19.9999999961972 -19.9999999961972 0 0 -10.0000000038654 -10.0000000000568 30.0000000075545 40 29.9999999999602 19.9999999961972 0 0 0 0 0 0 0 0 0 0 0 0 0 0 0 0 0 0 0 0 0 0 0 0 0 0 0 0 0 0 0 -19.9999999997044 0 0 0 0 0 0 0 0 0 0 0 0 0 0 0 0 0 0 0 0 0 0 -20.0000000043599 -290.000000005224 -600.000000016371 -730.000000011113 -710.00000001171 -550.000000006685 -300.000000001927 -180.000000011408 -39.999999999352 -29.9999999996703 -2460.00000055025 -4920 -4920 -4920 -4920 -4920 -4920 -4920 -4920 -4920 -4829.99999999882 -4860.0000000138 -4860.00000001383 -4829.99999999877 -4549.99999997573 -4830.00000001267 -4829.99999999873 -4519.99999998806 -4239.99999986933 -4860.00000001404 -4859.99999998859 -4859.99999998859 -4780.00000000777 -4140.00000003943 -1540.00000015226 -200.000000002859 -210.000000000477 -230.000000004286 -200 -220.000000003803 -250.0000000005 -250.000000000506 -299.999999996197 -329.999999996714 -339.999999988592 -419.999999997254 -520 -600 -600 -600 -600 -580.000000003803 -600 -630.000000000574 -609.99999999942 -600 -600 -580.000000003803 -580.000000003803 -560.000000003803 -539.999999996197 -529.999999995578 -469.999999999375 -420.000000003803 -450.000000012045 -610.000000027262 -800.000000049522 -920.000000045634 -750.000000032247 -580.00000002662 -430.000000025949 -380.000000011408 -320 -280.000000007606 -240 -200 -200 -260.000000003803 -239.999999998567 -200 -200 -200 -250.000000000739 -330.000000000745 -360.000000007606 -330.000000003047 -300.000000003803 -260.000000003803 -249.999999999227 -220.000000003803 -220.000000003803 -220.000000003803 -240 -249.999999999198 -259.999999996197 -260 -260.000000003803 -260.000000003803 -260.000000003803 -280 -269.999999999159 -270.000000008453 -330.000000006753 -370.000000008464 -320 -330.000000006736 -350.000000012284 -360.000000007606 -350.000000002916 -360 -370.000000004701 -360.000000007606 -380.000000003803 -360.000000009436 -349.999999999079 -389.999999999073 -390.000000004735 -410.000000004741 -440 -460.000000003803 -480.000000007606 -540.000000003803 -560 -570.000000000972 -600 -560.000000007606 -550.000000002814 -520 -550.000000001 -539.999999994179 -520 -560 -530.000000008632 -540.000000003803 -509.999999998963 -520.000000007606 -480 -440.000000007606 -419.99999999788 -380.000000003803 -360 -360 -360
20.0000000037915 109.999999999761 120 120 150.00000000357 180.000000003791 180.000000003791 190.000000000205 190.000000003593 200 190.000000003604 180.000000003791 180.000000003791 160 130.000000003627 100.000000003791 80 80 59.9999999962085 30.000000003655 20.0000000037915 40 19.9999999962085 19.9999999962085 40 40 39.9999999998067 40 39.9999999924171 59.9999999962085 40 49.9999999999318 59.9999999962085 49.9999999886825 29.9999999999488 60.0000000037914 10.0000000000398 0 0 0 0 0 0 0 0 0 0 0 0 0 0 0 0 0 0 0 0 0 0 0 0 0 0 0 0 0 0 0 0 0 0 0 0 0 0 0 0 0 0 0 0 -30.000000000216 -209.999999996186 0 0 0 0 0 0 0 0 0 0 -359.999999925313 -29.9999999877559 0 0 -30.0000000078899 -90.0000000123123 -20.0000000037915 0 0 0 -1590.00000036513 -4920 -4920 -4920 -4920 -4920 -4920 -4800 -4239.99999989384 -4239.99999989384 -3660.00000000379 -3620.00000000379 -3620.0000000084 -1980.00000031007 -1990.0000003189 -1159.99999996419 -310.000000000429 -319.999999991553 -319.999999991542 -310.000000000443 -309.999999995759 -300 -280 -249.999999995742 -240 -220.000000003791 -230.000000004275 -240 -259.999999996208 -319.999999992417 -389.999999995703 -419.999999996209 -459.999999996208 -460.000000003791 -480 -430.000000003257 -380.000000003791 -370.000000007037 -360.000000007583 -390.000000007026 -360.000000007583 -370.000000003223 -410.000000000574 -509.99999999942 -540.000000004962 -560 -560 -549.999999995606 -520 -520 -480 -440 -459.999999996208 -440 -379.999999994924 -260.000000003791 -270.000000004445 -269.999999999341 -240 -280 -280 -259.999999996208 -259.999999996208 -219.999999996209 -219.999999996209 -189.999999999295 -160 -200 -230.000000000722 -340.000000005247 -400 -339.999999994731 -259.999999998511 -260.000000011374 -230.000000006827 -210.000000006821 -200.000000003791 -209.999999995435 -150.000000003013 -160.000000003791 -240.000000009163 -240.000000007583 -210.000000006781 -190.000000002984 -260.000000007583 -320.000000007583 -290.000000006759 -260.000000011374 -260.000000011374 -290.000000006742 -320.000000009277 -400.000000009288 -520.000000022749 -570.00000001603 -610.00000000087 -639.99999997375 -609.999999981924 -569.999999978138 -489.999999972567 -459.999999977251 -479.999999969668 -479.999999969668 -479.999999969668 -449.999999961165 -399.999999969668 -369.999999972528 -289.999999980105 -239.999999992417 -249.999999997158 -259.999999996208 -280 -300.000000003791 -320.000000009527 -400 -400 -400 -380.000000003791 -380.000000003791 -390.000000004798 -390.000000004806 -380.000000003791 -420 -380.000000003791 -369.999999995171 -329.999999998957 -340.000000003791 -340.000000003791 -329.99999999894 -320 -320 -320 -300.000000003791 -280
119.999999992917 10.0000000002331 9.99999999977262 60.0000000037801 100.00000000378 120 120 120 160 140.00000000378 160 160 130.00000000017 100.00000000378 90.0000000001591 110.000000003627 100 89.9999999998579 129.999999999864 149.999999999869 179.99999999622 199.99999999244 199.99999999244 139.99999999622 89.9999999925421 99.9999999962199 150.000000003689 159.99999999244 169.999999992519 149.999999996294 109.999999996152 130.000000003718 150.000000003723 190.000000003729 179.99999999622 110.00000000374 19.9999999962199 19.9999999962199 9.99999999624265 0 19.9999999962199 40 29.9999999962199 19.9999999962085 0 0 0 0 0 0 0 0 0 0 0 0 0 0 0 0 0 0 -10.0000000001137 0 0 0 0 0 0 0 0 0 0 0 0 0 0 0 0 0 0 0 -20.0000000037801 0 0 0 0 0 0 0 0 0 0 0 -59.999999975546 0 0 0 0 -19.9999999955719 0 0 0 0 -1200.00000023718 -1630.0000002952 -130.000000000364 -160 -229.999999995845 -269.999999995839 -510.00000000889 -319.99999999244 -360 -360 -369.999999995811 -370.000000000415 -360 -370.000000000426 -360 -380 -430.000000017309 -460.00000000756 -399.999999995322 -380 -330.00000000424 -339.999999999068 -289.999999999528 -250.000000000477 -309.999999995737 -339.99999999622 -379.99999999622 -440 -480 -429.999999999488 -419.999999995185 -349.999999999477 -300.00000000378 -249.999999999466 -259.99999999622 -299.99999998866 -339.99999998866 -369.999999996777 -379.99999999622 -409.999999993008 -409.999999996794 -409.9999999968 -370.000000004366 -420.00000000378 -450.000000003183 -440 -440 -440 -430.0000000044 -440 -430.000000003149 -400 -379.99999999622 -319.99999999244 -310.000000004434 -289.999999988 -319.99999999244 -459.99999998866 -639.999999990013 -769.999999993122 -729.999999990376 -579.99999999622 -379.999999994822 -300 -289.999999987949 -339.999999997652 -399.999999995327 -519.999999979644 -579.9999999811 -529.999999998437 -519.99999997583 -349.99999999547 -219.99999999622 -139.99999999622 -110.000000004547 -109.999999999227 29.9999999887734 -50.0000000083446 -119.99999999464 -80 -30.0000000008015 -20 199.999999986505 389.999999985698 299.9999999811 159.99999997022 -110.000000004616 -159.999999994537 -189.999999997067 -159.999999994515 -150.000000002922 -160 -160 -179.99999999622 -229.999999997101 -289.999999997107 -320 -370.000000008458 -400 -440.000000005599 -460.00000001134 -440.00000001512 -420.00000001134 -440.00000000756 -450.000000012278 -450.000000008504 -470.000000008509 -550.000000017985 -850.000000023641 -990.000000016086 -1029.99999999708 -960.000000009385 -950.000000021697 -1069.99999999901 -1109.99999999721 -929.999999972539 -619.99999998866 -479.999999986636 -419.99999999622 -400 -369.999999987628 -369.999999997257 -389.999999997263 -399.99999999244 -419.99999999244 -469.99999999728 -499.99999998866 -679.999999987023 -849.999999982177 -879.999999973539 -890.000000007046 -840.000000020492
160 99.9999999962313 99.9999999962313 99.9999999962313 30.0000000002103 40.0000000075374 120 109.999999996425 109.999999999812 119.999999999636 120 139.999999996231 169.999999996396 169.99999999639 199.999999992463 249.999999996083 290.000000003627 280.000000003769 300.000000003769 320 270.000000000119 240 270.000000000108 269.999999999898 219.999999996425 160.000000007537 100.000000003769 110.000000003689 170.000000007316 150.000000000068 150.000000003706 150.000000000057 130.000000003718 160 140.000000003769 160 109.999999999972 160 160 160 130.000000007532 49.9999999962313 89.9999999999943 19.9999999962313 10.0000000000171 29.9999999962085 19.9999999924057 10.0000000038028 10.0000000038085 30.0000000000455 0 0 9.99999999616875 19.9999999962313 39.9999999924626 39.9999999924626 59.9999999962313 59.9999999962313 49.9999999923659 89.9999999923602 120.000000000216 120 10.0000000038881 10.0000000036437 -60 -70.0000000039051 -30.0000000036266 -9.9999999998522 0 0 0 0 0 0 0 0 0 0 0 0 -10.0000000002217 0 0 0 0 -10.0000000040188 0 0 0 0 0 0 0 0 0 -489.999999984618 -219.99999995415 -50.000000009129 -59.9999999962313 -19.9999999955719 0 0 0 0 -50.0000000041268 -80 -130.000000004138 -210.000000004144 -240 -310.000000000386 -349.999999996624 -379.999999996231 -390.000000000404 -430.000000004178 -440 -419.999999987011 -419.999999995379 -420 -420 -420.000000003769 -440 -429.999999999551 -430.000000004223 -390.00000000046 -400 -330.000000000472 -320 -380.000000004735 -450.000000000489 -460.000000003769 -460.000000003769 -380.000000003769 -330.000000007026 -280.000000007537 -260.000000003769 -259.999999996231 -280.000000001069 -450.00000000054 -629.999999995685 -680.000000007537 -710.000000010749 -710.000000015638 -740.000000015075 -810.000000019418 -830.000000019423 -870.000000004354 -879.999999984925 -809.999999976791 -799.999999977388 -799.999999992463 -849.999999991849 -859.999999996231 -880 -869.9999999956 -840 -809.99999999182 -789.999999991815 -800 -760 -719.99999999867 -720 -699.999999996231 -619.999999994867 -490.000000003081 -420.000000011306 -350.000000015774 -370.000000010601 -360.000000015075 -330.000000012022 -470.000000026222 -430.000000003041 -409.999999999267 -410.00000000303 -390.000000003024 -390.000000008288 -410.000000004525 -360 -329.999999995464 -289.999999991689 -210.000000000779 -159.999999987125 -149.999999986323 -110.000000000796 -99.9999999908595 -70.0000000008072 1.29318777908338e-08 270.000000034242 260.000000031798 420.000000000449 280.000000031821 60.0000000129887 90.0000000046157 370.000000008032 369.999999989888 59.9999999979593 179.999999994202 459.999999975637 139.999999977388 -170.000000008424 -280 -230.000000001074 -130.000000001057 -80.0000000075374 -80 -120.000000003769 -120.000000013159 -130.00000000847 -140.000000003769 -160.000000009425 -230.000000014154 -260.000000003769 -270.000000004729 -240.000000018844 -270.000000012278 -270.000000002791 -260.000000003769 -250.000000000989 -490.000000018269 -879.999999994463 -899.999999994219 -730.000000000733 -580.000000003769 -469.999999998974 -380.000000003769 -350.000000008575 -300.000000011306 -230.00000000272 -230.000000004823 -200 -240.000000007537 -210.000000012378 -210.000000008615 -200.000000007537 -179.999999997823 -200.000000009726 -189.999999995131
169.99999999647 160 190.000000000216 160 170.000000003553 160 89.9999999851639 80.0000000071395 200 200 219.999999996243 200 210.000000003598 240 230.00000000361 229.999999996385 219.999999996243 229.999999999869 240 240 200 240 229.999999996345 200 189.999999999909 190.000000000085 169.99999999992 200 189.999999996311 179.999999996368 119.999999999886 140 140.000000003757 150.000000003718 160 150.000000000028 139.999999996288 110.000000000017 100.000000003757 90.0000000000057 9.99999999624265 9.99999999999431 9.99999999998863 29.9999999924682 70.0000000037801 30.0000000113573 109.999999992451 89.9999999886086 110.000000000045 79.9999999849706 109.999999996186 229.999999988665 309.999999992553 349.999999996169 360 280.000000003757 180 149.999999999903 89.9999999959357 7.29869675808459e-09 -130.000000003871 -190.000000007395 -120.000000015029 -110.000000011403 -100.000000003757 -89.9999999998579 -60.0000000037573 -30.0000000039108 -40 -9.99999999983515 0 10.0000000001762 -20.0000000037573 -30.0000000039449 -39.9999999924853 -19.9999999962426 0 0 0 0 0 -69.9999999960096 -110.000000000239 -69.9999999959982 -50.0000000002501 0 0 0 0 0 0 0 0 0 0 -10.00000000407 -110.000000044832 -90.0000000071907 -60.0000000037573 -9.99999999966462 0 0 0 -10.0000000003581 -40 -120 -130.000000000375 -200 -280 -320 -360 -400 -400 -400 -430.000000004178 -440.000000000853 -469.999999991189 -449.999999995805 -430.000000004201 -429.999999999554 -450.000000000449 -420.000000003757 -410.000000004218 -409.999999995777 -369.999999995771 -330.000000000477 -329.999999995759 -330.000000004246 -340.000000003757 -270.000000003257 -200 -190.000000003246 -179.999999996243 -229.999999996766 -280 -300.000000003757 -309.999999995703 -320 -320.000000007515 -340.000000003757 -339.999999996243 -360 -360 -360 -360 -380.000000003757 -380.000000003757 -450.000000011875 -490.00000001188 -520.000000007515 -570.000000008134 -660.000000005008 -680 -680 -669.999999999358 -699.999999996243 -710.000000003104 -720.000000003757 -720 -660.000000003757 -640 -539.999999994878 -299.999999989734 -200.000000007515 -130.000000003058 -180.000000012682 -200 -220.00000000519 -210.000000004479 -110.000000019514 -140.000000012739 -200.000000008993 -249.999999999255 -290.000000008265 -330.000000003001 -330.000000002996 -329.999999999233 -320 -309.999999999221 -239.999999996862 -220.000000003757 -219.999999998408 -180 -160 -129.999999997056 -40 50.0000000008242 50.0000000100044 80.0000000129432 19.9999999945601 30.0000000046043 160.00000000922 209.999999997101 309.999999958106 249.999999969071 109.999999997374 180.000000011272 220.00000002056 450.00000000822 219.999999964388 -30.0000000440423 -140 249.999999998988 419.999999992485 349.999999991508 380.000000001864 650.0000000216 379.999999998113 280.000000005616 150.00000000656 -80 -149.999999995276 -10.0000000047294 -40.0000000075147 -80.0000000019668 -139.999999996243 -260 -390.000000014029 -400.000000007515 -340.000000003757 -360.000000003757 -270.000000012295 -190.000000002726 -160 -160 -160 -160 -140.000000003757 -160 -160 -140 -130.000000008598 -120 -119.999999997812 -110.0000000011 -79.9999999940314
139.999999996254 169.99999999647 189.999999996464 200 249.999999999801 240 189.999999996442 119.999999992508 70.0000000001762 90.0000000073214 130.000000000165 80 120 99.9999999928036 140.000000003746 139.999999996254 130.000000000131 169.999999999875 209.999999999881 179.999999999773 200 200 200 160 130.000000000085 149.99999999992 190.000000000074 200 210.000000000062 170.000000000057 130.000000003797 69.9999999999545 50.0000000037062 60 40 20.000000003746 30.0000000074749 -59.999999996254 -69.9999999999943 -99.999999996254 -59.9999999924967 20 170.000000000017 299.999999988717 420.000000000057 600.000000003814 749.999999992389 609.999999988626 509.999999988711 339.999999988648 480.000000003746 450.000000003678 360.000000003746 390.000000003826 370.000000003661 289.999999996163 149.999999996157 89.9999999961517 119.999999992508 139.999999988762 19.999999996254 69.9999999926331 199.999999985016 239.999999977524 259.999999988762 249.999999988614 219.999999988762 89.9999999923489 110.000000000165 150.000000007662 220.000000003746 219.999999996254 219.999999996254 219.999999996254 230.000000003547 79.9999999846068 -120 -169.999999996038 -139.999999988319 -80 -80 -80 -100.000000003746 -129.999999996004 -150.000000004002 -69.9999999917236 0 0 0 0 0 0 0 0 0 0 0 0 0 0 0 0 0 -20.0000000044736 -40 -120 -120 -210.000000004133 -250.000000000392 -320 -350.00000000415 -360 -389.999999999585 -400 -410.00000000332 -450.000000004178 -420.000000007492 -369.999999999557 -430.000000004195 -400 -400.000000008401 -380.000000003746 -370.000000004212 -340 -320 -280 -240 -229.999999995759 -230.0000000005 -259.999999996254 -280 -219.999999991473 -240.000000008538 -289.999999999471 -340.000000003746 -340.000000003746 -250.000000004292 -219.999999996254 -219.999999996254 -220.000000003746 -200.000000007492 -250.00000000432 -280 -250.00000000316 -160.000000007492 -150.000000006895 -220.000000008697 -280 -70.00000001437 49.9999999881424 -190.000000001876 -329.999999999369 -410.000000009402 -540.000000012523 -610.00000000814 -650.000000003092 -639.999999996254 -660.000000003746 -609.999999999329 -609.999999999324 -600.00000000511 -569.999999995566 -449.999999991814 -289.999999995555 -130.000000003041 -69.9999999955435 -40 -80 -109.999999999272 -150.000000004479 -120 -120.000000003746 -99.9999999947533 -90.000000000756 -150.000000004508 -200.000000009027 -260.000000003746 -230.000000008271 -229.999999999216 -229.999999997044 -169.999999995458 -149.999999999198 -80 -80 -80 -99.999999996254 -80 -29.9999999970896 -29.9999999862382 -59.999999996254 -19.999999996254 -40 -40 20.0000000184627 -19.9999999870113 20.0000000092541 -19.999999996254 -19.999999996254 -29.9999999971521 1.30455646285554e-08 70.0000000028365 -60.000000003746 -129.999999997237 120.000000024329 220.000000014967 99.999999996254 80.0000000112379 -49.9999999897113 -150.000000004701 -189.999999995293 -220.000000005679 -209.999999999028 -209.999999999022 -200.000000009459 -120.000000007492 -110.000000010243 -90.0000000047464 -90.0000000047521 -80 -80 -80 -99.9999999941963 -49.9999999989626 -40 -40 -40 -50.0000000048061 -59.9999999978684 -50.0000000010715 -70.0000000048232 -60.000000003746 -90.0000000048345 -80 -49.9999999989001 -40 -59.999999996254
249.999999996481 220.000000003735 230.00000000353 270.000000003536 260.000000003735 220.000000003735 149.999999999818 159.999999992883 149.999999992701 129.999999996101 109.999999999841 100 90.0000000073214 169.999999999858 219.999999996265 249.999999999869 259.999999996265 270.000000000119 270.000000000114 240 240 179.999999996459 100.000000014938 110.000000007554 60.0000000038938 69.9999999963393 69.9999999963336 109.999999999937 110.000000003678 79.9999999963677 80 0 0 19.9999999962654 59.9999999962654 49.9999999999829 10.0000000037232 -9.99999999998295 -159.999999996265 -160.000000003735 -210.000000003746 -129.999999996248 1.12038414101789e-08 130.000000003763 240 360.000000003735 320.000000003735 230.00000000752 270.000000003791 300.00000000386 330.000000000068 290.000000000074 280 270.00000000382 280 450.000000000097 459.999999996265 389.999999988472 380.000000000227 349.999999996146 299.999999996265 360 380.000000004007 420.000000003735 460.000000003735 479.999999996265 520 520 559.999999992531 649.999999996442 699.999999988796 609.999999984874 509.999999981134 379.999999977194 239.999999988387 230.00000000021 539.999999992531 499.999999977592 229.99999998019 119.999999992065 -20 -90.0000000077136 -129.99999999975 -140.000000003735 -89.9999999922693 40.0000000042689 19.9999999962654 -69.9999999959868 -49.9999999922466 -9.99999999597548 0 0 0 0 0 0 -9.99999999593569 0 0 0 0 0 0 -20 -40 -90.0000000048771 -129.999999999613 -160 -220.00000000453 -250.000000004138 -299.999999995447 -320 -320 -350.000000004161 -350.000000004167 -360.000000008345 -339.999999999113 -360 -349.999999999545 -329.999999999542 -340.000000003735 -300.000000008401 -300.000000008413 -289.999999999522 -249.999999999517 -240 -199.999999999011 -389.999999992031 -299.999999991519 -249.999999992019 -240 -229.999999999477 -220.000000003735 -200 -210.000000004275 -270.000000000546 -320 -339.999999996265 -360 -309.999999995697 -299.999999996265 -240 -229.99999999568 -120.000000007469 -69.9999999994031 -80 -59.9999999962654 -130.000000011818 -180.000000003735 -250.000000016814 -229.999999994372 -139.999999996265 10.0000000056616 39.9999999925308 -310.000000013165 -520.000000008788 -560 -549.999999995595 -560.000000003735 -570.000000004417 -569.999999999312 -579.999999994878 -539.999999994867 -499.999999994856 -269.999999986664 -70.0000000030184 -50.0000000007219 -70.0000000044622 -59.9999999962654 -50.000000000739 -40 -80 -50.0000000044906 -60.0000000037346 -40 -40 -40 -100.000000003735 -180.000000003735 -170.000000000796 -150.000000004536 -160 -170.000000004547 -240 -260.000000003735 -229.999999991701 -149.999999991695 -109.999999999159 -89.999999999153 -80 -50.0000000045929 -49.999999999136 -60.0000000037346 -50.00000000461 -49.9999999991189 -40 -40 -49.9999999991019 -60.0000000037346 -110.000000008379 -129.999999999085 -140.000000005576 -129.999999999073 -79.9999999944009 7.46922523831017e-09 -59.9999999962654 -100 -109.999999999045 -80.0000000131251 -49.999999995299 50.000000000972 119.999999992531 190.000000002751 160.000000007469 70.0000000027398 9.99999999899955 -10.0000000047407 40.0000000003126 59.9999999908311 -29.9999999989768 -20.0000000037346 0 -19.9999999941792 9.99999999731415 29.9999999989456 90.0000000010601 69.9999999973312 10.0000000010715 10.0000000048118 30.0000000032486 19.9999999962654 19.9999999962654 -9.99999999890008 0 -40 -40
170.000000003513 180 160.000000003723 170.000000003917 179.999999996652 169.999999993099 200.000000003723 180.000000003723 160.00000000033 149.999999999841 100.000000003723 100.000000003723 70.0000000001421 60 20.0000000037232 80.0000000114198 160.000000032315 240 220.000000003723 170.000000003826 120 99.9999999925535 10.000000003638 69.9999999999204 110.000000000074 149.999999999932 160 139.999999992667 170.000000007395 239.999999996277 110.000000003683 160.000000014756 159.999999996334 0 59.9999999925535 19.9999999814065 -10.0000000111754 -7.44648787076585e-09 149.999999996294 209.999999992542 110.000000000017 139.999999996277 159.999999996334 170.000000003757 320.000000003723 410.000000000045 389.999999999949 440.000000003837 540.000000000125 499.99999999614 450.000000000074 469.999999996356 489.999999996362 479.999999992554 469.99999999618 470.000000000102 449.999999996169 449.999999996163 480 499.999999996277 529.999999996407 549.999999996413 559.999999996277 520 499.999999996277 500.000000003723 549.999999999835 640 710.0000000039 769.999999999818 750.000000003536 660.000000003723 660.00000001117 690.000000003928 680.000000007446 659.999999999568 519.999999995833 480.000000000455 389.999999981151 279.99999998883 259.99999998883 179.999999980884 119.99999998883 -30.0000000114312 -89.9999999997328 -109.999999999727 -120 -80.0000000042917 -110.000000007736 30.0000000040188 -70.0000000077477 -80 -59.9999999919282 -110.000000011488 -110.000000003399 -9.99999999594706 0 0 0 0 0 0 0 0 -70.0000000003808 -179.999999980611 -140.000000007446 -220.000000026858 -160 -189.999999999591 -229.999999999585 -250.000000004144 -250.00000000415 -260.000000004587 -250.000000004161 -249.999999999557 -249.999999999551 -249.999999999545 -260.000000003723 -240 -239.999999999068 -220.000000004667 -200 -200 -189.999999999511 -349.999999965996 -339.999999966491 -399.999999990854 -520 -459.999999996277 -299.999999991508 -199.999999998943 -140.000000003723 -120 -120.000000008538 -160 -120 -150.000000008009 -240.000000007446 -250.000000003149 -249.99999999942 -179.999999996277 -59.9999999988176 69.9999999919566 59.9999999962767 90.0000000006082 19.9999999876024 -60.0000000037232 -9.919176591211e-09 249.99999997703 229.99999999564 -80.0000000087311 -29.999999985755 -49.9999999969304 -140 -240.00000000133 -380.000000007446 -389.999999999324 -390.000000008129 -440.000000007446 -529.999999999307 -530.000000004422 -529.999999999295 -520 -479.999999987398 -389.999999986665 -229.999999995549 -149.999999999267 -60.0000000037232 -60.0000000037232 -20.0000000111697 -80 -80 -80 0 -30.000000004502 -40 -40 -60 -120 -150.00000000453 -150.000000000813 -80 -80 -100.000000003723 -169.999999999164 -139.999999994594 -130.000000002876 -69.9999999954241 -60 -40 -40 -40 -19.9999999962768 -19.9999999962768 0 -40 -59.9999999962767 -80 -60.0000000037232 -40 -60.0000000055763 -110.000000000932 -89.9999999990621 -80 -80 -59.9999999962767 -59.9999999943554 -40 0 59.9999999962767 100.000000003723 139.999999996277 169.999999989825 109.999999995276 79.9999999925535 160.000000016917 229.999999996948 139.999999992554 79.9999999867725 120.000000007861 170.000000004763 209.999999993602 390.000000018056 450.000000006386 429.99999995957 519.99999998883 309.999999993045 409.99999998125 309.999999987742 210.000000012918 159.999999977661 59.9999999903423 59.9999999940542 0 -30.0000000048459
110.000000000205 120 130.000000003519 110.000000000188 70.00000000353 69.9999999998238 49.9999999998295 59.9999999962881 89.999999996129 89.9999999998465 79.9999999931674 59.9999999928605 69.9999999964245 19.9999999962881 -10.0000000001251 -10.0000000035925 30.0000000003411 80 139.999999992372 309.99999999971 180.000000010954 80 49.9999999963677 170.00000000735 210.000000007356 190.000000011073 190.000000003541 110.000000003763 30.0000000001364 -29.9999999962483 -9.99999999996589 -39.999999981668 210.000000003735 310.000000000017 429.999999999989 559.999999999989 549.999999985152 459.999999981429 439.999999988864 340.000000000034 359.999999977683 369.999999981526 529.999999996322 619.999999985073 619.999999992667 559.999999992474 549.999999996231 530.000000000063 539.99999999244 569.99999999265 560.000000007742 590.000000000085 559.999999984971 519.999999992576 490.000000000102 519.999999996504 559.999999996515 630.00000000407 730.000000000125 860.000000003973 989.999999996152 1009.99999999272 969.999999996436 959.999999996288 939.999999988546 919.999999985152 809.999999980588 739.99999999664 759.999999984789 699.999999985152 719.999999992576 680.000000000398 730.000000003916 850.000000015478 1050.00000000764 1200 1330.00000001507 1309.99999998399 1219.99999999258 1099.99999999951 1009.99999999925 820.0000000032 599.999999995765 290.000000010868 -99.9999999808949 -40 -10.0000000039961 0 0 -20 -110.000000022578 -79.9999999993747 -9.9999999959698 0 -10.0000000040416 -19.9999999962881 0 0 0 -29.9999999966462 -129.999999985516 -239.999999972539 -179.999999988864 -239.999999992576 -280.000000004485 -360.000000002143 -600.000000047458 -300 -300 -310.000000007009 -330.000000016109 -370.00000000785 -450.000000007856 -660.000000013972 -569.999999994958 -399.99999999539 -290.000000007878 -280.000000008345 -329.999999999534 -320.000000003712 -340.000000003712 -340.000000002757 -300.000000013881 -320.000000007424 -269.999999998516 -280.000000007424 -480.000000015859 -569.999999992065 -489.999999995771 -440.000000007424 -409.999999998414 -289.999999992042 -169.999999988324 -50.0000000031662 -40.0000000048146 -69.9999999920192 -59.9999999951626 130.000000005417 79.9999999951399 -110.000000008004 -220.000000007424 -190.000000004303 -169.999999999403 -160.000000007424 -120.000000007424 -60.0000000061959 80.0000000012392 109.999999995663 -90.0000000043428 -100.000000007424 -160 -240.000000001296 -170.000000004366 -199.999999996288 -170.000000001717 -240.000000008765 -290.000000004388 -409.999999995606 -440 -480.000000008811 -510.000000004411 -520 -520 -520 -500.000000003712 -459.999999994833 -399.99999999111 -370.000000000739 -279.999999991087 -240 -179.999999996288 -160 -149.999999995521 -120 -100 -59.9999999962881 -40 -50.0000000007958 -29.9999999954866 -10.0000000008072 -70.0000000045247 -80 -49.9999999991758 -40 -40 -60.0000000053944 -120 -80 -89.9999999991417 -40 -40 -40 -40 0 0 -10.00000000461 -40 -40 -59.9999999962881 -40 -40 -59.9999999962881 -29.9999999953502 -30.0000000046555 -40 -40 -20.0000000037119 -20.0000000037119 0 0 0 60 80 80.0000000094246 40 70.0000000010118 80.000000002035 219.999999992576 380.00000000577 289.999999997323 299.999999983072 459.999999997908 580.000000030707 610.000000001594 419.99999998405 590.000000003214 549.999999991499 669.999999979738 690.000000012224 710.000000001094 490.000000018147 219.999999995578 160 99.9999999940542 9.99999999887734 0
150.000000003502 109.999999993179 120 120 150.000000003524 200 189.999999996464 200 200 200 209.999999999858 220.000000003428 229.999999999869 249.999999999875 220.000000003462 219.999999996527 159.9999999963 230.000000000307 169.999999992502 180.000000003882 169.999999988984 249.999999992201 269.999999985124 120.000000003564 99.999999992724 69.9999999999431 29.9999999926501 69.9999999889439 -20.0000000037005 -60.0000000183661 -40.0000000037573 -10.0000000184343 109.999999988916 80.0000000037005 110.000000018497 360.000000014802 570.000000003729 709.999999999989 699.9999999963 690.000000000068 750.000000000028 720 710.000000007441 720 709.999999988643 739.999999992713 859.999999970396 999.999999988898 1139.99999998905 1219.99999997764 1260.00000000017 1219.99999999242 1079.99999999241 919.999999996299 790.00000001121 580.000000010647 520.000000018741 550.000000003826 710.000000004093 820.000000018503 950.000000018929 1110.00000000784 950.00000000295 1320.0000000074 1410.00000000354 1429.99999999983 1420.0000000037 1289.99999999982 1069.99999999204 899.999999988512 709.999999992002 630.000000004314 599.999999984777 539.999999992599 459.999999996299 359.999999992144 339.999999988898 430.000000008117 470.000000022936 710.000000024454 1000.00000001953 829.99999999817 -140.000000005343 -190.00000001192 -159.999999968725 0 -9.99999999600959 -10.0000000039961 -20.0000000006025 -19.9999999919851 -60.0000000240789 -29.9999999959812 -180.000000008885 -349.999999912325 -639.999999991604 -689.99999999294 -860.000000024517 -369.999999981145 -359.99999999045 -330.000000041734 -880.000000079928 -480.000000067359 -130.000000007782 -90.0000000033139 -90.0000000033083 -60 -80.0000000037005 -160 -210.000000004945 -189.999999987637 -189.999999999574 -249.999999999568 -239.999999996299 -250.000000000443 -320.000000002802 -550.000000008765 -299.999999987978 -220 -230.000000003229 -209.999999994876 -230.000000004178 -229.999999999517 -280.000000004678 -250.000000000494 -220.000000011101 -170.000000004206 -209.999999995788 -300.000000012136 -310.000000000523 -360 -370.000000000534 -340.0000000037 -320 -339.999999995197 -190.000000003143 80.000000007401 40 -19.9999999962995 -29.9999999994202 -40.000000008572 -110.000000003109 -120 -149.999999993202 -249.99999998829 -219.999999996299 -189.99999999568 -160.000000001251 -179.9999999963 -109.999999988262 -119.999999992599 -189.999999995651 -160.0000000037 -109.999999999341 -130.000000008066 -120 -160 -220 -350.000000004388 -419.999999998613 -460.000000005099 -469.999999999295 -480 -480 -480 -460.0000000037 -480 -440 -419.9999999963 -379.999999994799 -349.999999995543 -289.999999995538 -240 -199.999999991053 -149.999999995521 -120 -99.9999999962995 -80 -59.9999999962995 -50.0000000008072 -29.9999999954866 -49.9999999917804 -40.0000000016485 -99.9999999962995 -109.999999997135 -99.9999999962995 -80 -80 -80 -40 -60.0000000037005 -40 -9.99999999541842 0 9.99999999540705 10.0000000045986 0 -40 -40 -20.0000000037005 -40 -40 0 -10.0000000046441 0 -20.0000000056104 -40 -30.0000000046668 -9.99999999532747 0 69.9999999990166 49.9999999953104 70.0000000046953 40 80.0000000020122 149.999999995288 119.999999997965 140.000000002046 179.999999994242 249.999999998965 259.999999996299 380.000000016894 180.000000018502 210.000000038605 280.000000011102 239.999999972925 270.000000022342 220.000000001535 330.000000026992 180.0000000037 180.000000001501 160.0000000037 109.999999998889 49.9999999951825 19.9999999977547 10.0000000011283 79.999999992599
170.000000003496 160 179.999999996675 180 160 160 169.999999999841 169.999999999847 179.999999992917 170.000000003547 120.000000003962 140 209.999999996186 259.999999989171 389.999999981668 449.99999995996 339.999999981759 209.999999981651 99.9999999892964 90.0000000071225 109.99999999639 100.000000003541 140 239.999999999875 180.000000007265 50.0000000073271 209.999999992667 189.99999999643 130.000000007412 130.000000021993 30.0000000073555 90.0000000073612 220.000000007333 369.999999974204 400.000000003689 349.999999996305 360.000000000045 580.000000018548 770.000000000023 760 709.999999996277 650.000000003729 690.000000007424 720.000000007378 770.000000022192 760.000000003439 710.00000001865 760.000000037039 750.000000018366 830.000000015012 870.000000007105 860.000000014757 779.999999999386 800.000000007162 459.999999995629 140.00000000345 120.000000011318 190.000000018576 190.000000033611 210.000000010925 350.000000018298 440.000000018446 470.000000003848 349.999999965314 160.000000061755 540.000000019151 610.000000014575 700.000000026199 890.00000002679 890.000000005588 730.000000044065 640.000000047959 720.000000014325 529.999999991957 219.999999988984 20.000000039222 20.0000000221348 120.000000033202 430.000000031264 540.000000006355 530.000000007117 480.000000003689 329.999999995492 -410.000000030485 -369.999999881084 -90.0000000241641 -109.999999993651 -220.000000005423 -349.999999976944 -339.999999988307 -319.999999981554 -389.999999996635 -420.000000004349 -520 -509.999999995288 -179.999999994924 -150.000000004042 -90.0000000040472 -9.99999999594706 0 -110.000000000375 -190.000000007759 -119.999999980781 60.0000000044736 139.999999994719 309.99999997504 99.9999999778652 -100.000000004519 100.000000003689 60.0000000107889 99.9999999897966 -4.56452653452288e-09 9.99999997284589 -109.999999999551 -109.999999999545 -310.00000000876 -289.999999988466 -170.000000000472 -40.0000000073783 99.999999982515 -129.999999996794 -209.999999999511 -99.9999999953218 -59.9999999953104 -90.0000000052068 -140.000000009425 -250.000000000517 -290.000000000523 -320 -330.000000004223 -340.000000003689 -320 -269.999999999449 -249.999999999443 -270.000000007941 -300.000000003689 -299.999999996311 -259.999999996311 -239.999999992622 -179.999999996311 -229.999999989529 -299.999999996311 -299.999999995094 -259.999999998772 -210.000000007998 -200.000000003689 -200.000000007378 -190.000000004326 -169.999999999358 -160 -170.000000004343 -180.000000003689 -160 -200 -169.999999995634 -190.000000000682 -200 -259.999999996311 -300.000000005087 -310.000000004394 -329.9999999956 -320 -350.000000000722 -360 -360 -400 -410.000000004434 -420.000000003689 -429.999999995555 -400 -360 -329.999999995538 -299.999999996311 -219.999999996311 -219.999999987352 -160 -129.999999995509 -89.9999999991928 -69.9999999991871 -40 -40 0 0 0 -40 -40 0 -30.000000000864 -40 -40 -40 -40 -29.9999999954184 0 0 -19.9999999963109 -40 -19.9999999963109 -19.9999999963109 -20.0000000036891 -20.0000000036891 -40 -40 -10.0000000027342 0 60 29.9999999899046 40.0000000112891 120.000000007623 189.999999991633 99.9999999906322 70.0000000046896 139.999999996311 100.000000003689 130.000000001017 159.999999992622 229.999999995282 259.999999986863 319.999999990541 250.000000002643 79.9999999957936 100.000000011067 159.999999992622 100.000000011067 129.999999991545 150.000000015839 120.000000007378 130.000000002595 119.9999999978 100.000000003689 79.9999999977774 60.0000000036891 0 0 0 0
150.00000000349 190.000000003496 209.999999999824 199.999999999659 190.000000000165 190.000000000159 150.000000003524 150.000000007208 169.999999993071 150.000000003268 409.999999996191 440 499.999999996322 600.000000003905 619.999999989183 839.999999992644 869.999999996612 669.999999996413 560.000000003848 150.00000000008 -29.9999999778595 -109.999999989444 -70.000000007418 10.0000000356977 10.0000000267164 -49.9999999963677 0 20.0000000073555 -60.0000000036778 -110.00000000361 -199.999999996356 -99.9999999890121 0 170.000000003678 360.000000014722 600.000000014734 640 659.999999996277 740.000000007412 689.999999999829 480.00000001823 269.999999996004 150.000000003934 30.0000000072987 -159.999999996447 -179.999999985016 -169.999999992718 -169.999999992724 -279.999999985118 -379.999999966718 -150.000000019645 -219.999999984675 0 0 -240.000000025744 -329.999999992519 -309.999999996453 -50.0000000329635 -210.000000034095 -470.000000007799 -459.999999992031 0 -3.84261511499062e-08 -120.000000003337 10.0000000049113 69.9999999854708 -220.000000022442 -379.999999995936 -219.999999959545 20.0000000077648 110.000000030474 -390.00000000108 -369.999999996101 -379.999999996322 -369.999999992411 -399.999999996322 -329.999999988233 -320 -270.000000033356 -29.9999999750571 0 0 0 -410.000000026898 -810.000000027972 -609.999999966275 -489.999999982452 -539.999999897011 -629.999999994685 -1089.99999998674 -639.999999983345 -240.000000003018 -270.000000015717 -310.000000010692 -60.000000006662 269.999999987051 160.000000005826 119.999999999272 80 239.999999943259 270.000000002666 679.999999960903 329.999999983328 -10.0000000159048 -9.99999998488533 220.000000026563 210.000000010618 159.999999990649 329.999999999574 580.000000009084 650.000000010596 350.000000014268 -9.99999999399165 -119.999999995413 -110.00000000046 -260 -179.999999984345 -89.9999999995225 -139.999999988 -249.999999989453 -300.000000003678 -310.000000003183 -299.999999995322 -280 -280 -280 -280 -280 -290.000000003143 -269.99999999946 -280 -280 -240 -109.999999999437 -80 -89.9999999957481 -140.000000003678 -200 -280.00000000486 -320 -320 -320 -280 -240 -200 -179.999999996322 -190.000000000637 -200 -179.999999996322 -160 -180.000000003678 -160 -160 -190.000000005707 -240 -260.000000003678 -280.000000005065 -299.999999994924 -280 -300 -280 -289.999999999278 -350.000000004405 -389.999999999267 -400 -400 -380.000000003678 -349.999999999244 -309.999999999238 -280 -300.000000003678 -260.000000003678 -260.000000003678 -250.000000004468 -260.000000003678 -270.000000004479 -220 -160 -120 -80 -49.9999999954923 -40 -29.9999999954809 -19.9999999963222 -40 -40 -40 -40 0 -20.0000000036778 -29.9999999954355 0 -40 -40 -40 -40 -19.9999999944805 0 0 -29.9999999953843 0 10.0000000046271 70.000000000955 220.000000027995 249.999999986068 189.999999993616 230.000000000978 250.000000000983 180.000000014711 80 80 129.999999997328 200 249.999999995305 69.9999999973454 40 220 300.000000007355 260.000000009447 199.999999995794 70.0000000084128 99.9999999883925 139.999999996322 150.000000004755 330.000000012116 149.999999995234 130.000000002584 90.0000000010999 140.000000002211 140.0000000059 109.999999995205 0 0 69.999999998866 9.99999999886029 40
100.000000003303 130.000000003138 150.00000000017 170.000000000165 180 220.000000003359 229.999999993111 140.000000014097 240 200.000000007333 300.000000007083 380.000000007094 399.999999999773 460 420.000000007333 470.000000007043 410.000000014575 370.000000007589 279.999999996652 179.999999989296 349.999999977933 829.999999985147 979.999999989114 519.999999978104 149.999999967321 20.00000001084 149.999999992701 189.999999992752 150.000000003598 269.999999996316 109.999999999989 110.000000003661 189.999999996334 39.9999999853117 169.999999989012 270.000000007384 450.000000003689 490.000000007134 60.00000000353 -89.9999999780414 -149.999999996561 -200 -169.999999996163 -160.000000007583 -209.999999996265 -179.999999992519 -99.9999999886824 -130.000000000085 -100 -100.000000003666 -79.9999999924625 140.000000022862 360.000000014666 400 460.000000010999 330.000000014535 200.000000011272 420.000000019185 240.00000003152 60.0000000045872 530.000000000159 600 469.99999999983 269.999999993196 459.999999992303 410.000000003854 409.999999992474 289.999999999801 140 -220.000000008174 -510.000000007549 -500.000000026108 -440.000000006423 -280.000000003666 -139.999999995379 -70.0000000029331 29.9999999897511 -10.000000011255 -60.0000000073328 -90.0000000075999 -110.000000003394 -140.000000007333 -120.000000003666 -130.000000011289 -160.000000007333 -150.000000002763 -160.000000007333 -200.000000010999 -249.999999999045 -280.000000007333 -480.000000011659 -389.999999983657 -139.999999996334 -80.0000000036664 -89.9999999959811 100.000000004383 730.000000010607 869.999999967343 560.000000007418 840.000000010999 630.000000016598 1209.99999999306 819.999999974335 409.999999950319 99.9999999861529 40.0000000089926 -40 -40 20.0000000109992 1.01238111227531e-08 -100.000000004553 -129.999999996783 -209.999999996788 -220.000000003666 -180.000000003666 -180.000000007333 -200.000000007333 -180.0000000027 -140.000000002689 -100.000000003666 -179.999999996334 -219.999999989001 -259.999999996334 -240 -229.999999999483 -220.000000003666 -210.000000000529 -189.999999999466 -160 -180.000000003666 -280.000000008436 -329.999999999443 -249.999999994645 -160 -240.000000008481 -229.999999992087 -179.999999996334 -240 -269.999999999403 -249.999999999397 -249.999999999392 -260.000000003666 -230.00000000062 -200 -240 -270.000000000637 -260.000000003666 -200 -170.00000000432 -159.999999996334 -129.999999995669 -180 -240 -249.999999995651 -259.999999996334 -280 -280 -270.000000004371 -260.000000003666 -209.999999991951 -259.999999996334 -280 -280 -300.000000003666 -390.000000008077 -429.999999995583 -369.999999995578 -309.999999991905 -259.999999996334 -219.999999996334 -220.000000003666 -200 -180.000000003666 -160 -139.999999996334 -120 -110.000000004479 -80 -80 -80 -59.9999999946624 -40 -40 -40 -40 -40 -40 -40 -40 -40 -40 -40 -40 0 0 0 0 0 10.0000000009379 40.0000000018872 99.9999999926672 189.999999997135 260 450.000000004633 409.999999982418 259.999999992423 240.000000001967 219.999999983356 139.999999985022 130.000000001 189.999999987995 200 189.999999995316 210.00000000793 269.999999987523 190.000000019838 40 40 79.9999999926672 40 69.999999998937 120 109.999999997411 139.999999996334 120.000000005844 120 80 80 40 40 0 0 19.9999999963336 49.9999999951939 40 40
180 200.000000003314 239.99999999302 169.999999992849 179.999999996345 100.000000000296 129.999999996203 129.999999999864 169.999999999869 229.99999999647 229.999999996464 250.000000003541 269.999999999892 260 190.000000007213 200.00000000731 110.00000000374 -70.0000000034163 -259.999999992838 -229.999999996413 -39.9999999817248 320.000000082701 870.000000032537 740.000000003837 309.999999974852 -89.9999999999659 -299.999999967389 70.0000000036323 -3.62092578143347e-09 -69.9999999963563 -99.9999999890235 -79.9999999853799 110.000000018292 160.000000018321 -29.9999999890519 -40 49.9999999707313 99.9999999451063 759.999999989114 679.999999966832 459.999999985278 389.999999985437 359.999999992815 269.999999985175 239.99999999269 159.99999998538 59.9999999778993 -130.000000011238 -259.999999992303 -280.00000001117 -219.999999999568 -100.000000003428 -50.0000000035356 0 -20.000000003655 59.9999999960721 -60.0000000005684 -210.000000015064 -189.999999991922 240.00000000461 669.99999999684 959.999999996345 809.999999988154 549.999999996163 390.000000003843 319.999999996345 340.000000000398 229.999999992076 59.9999999959243 -30.000000003439 150.000000000665 129.999999996118 -50.0000000038881 8.26503310236149e-09 130.000000003899 269.999999996595 360.000000004167 240.000000003655 109.999999992423 249.999999988762 359.999999996345 229.999999981441 409.99999999356 509.999999995458 599.999999996948 569.999999981418 539.999999970134 269.99999997346 179.999999980429 -1.59388982012842e-08 -160.000000012307 -680.000000008674 -229.99999998434 -89.9999999879776 209.99999998065 60.0000000160753 479.999999997084 740.000000011715 570.000000008453 269.999999995185 670.000000015797 500.000000049903 980.000000022737 600.000000013801 380.000000026415 210.000000030502 240.000000021078 -40 -70.0000000040927 -90.0000000040984 -120 -120 -40 -20.0000000128296 -89.9999999922181 -99.9999999972999 -159.99999999269 -179.999999996345 -189.999999997829 -240 -240 -240.00000000731 -180.000000003655 -140.000000003655 -150.000000011488 -120.000000008367 -130.000000007844 -130.00000000054 -240 -260.000000003655 -230.000000003098 -220.000000003655 -200 -200 -230.00000000058 -280 -209.999999999409 -230.000000000597 -269.999999992087 -259.999999996345 -240 -210.000000004275 -210.00000000303 -209.999999995714 -229.999999995708 -240 -210.000000000648 -210.000000000654 -230.000000000659 -219.999999995015 -200 -180 -189.999999999318 -240 -269.999999999306 -280 -210.00000000436 -170.000000000711 -69.9999999992838 -60.000000003655 -40 -60.000000003655 -50.000000008049 -100 -119.999999998499 -180.000000030752 -300.000000005787 -380.000000028655 -479.999999994799 -449.999999995566 -339.999999998431 -179.999999996345 -149.999999999204 -100.000000003655 -90.0000000044622 -150.000000004468 -100.000000003655 -89.9999999991758 -69.9999999991701 -40 -70.0000000008413 -40 -40 -40 -40 -40 0 20.000000003655 -40 -40 -40 -30.0000000045588 -40 -9.99999999542979 -19.999999996345 -30.0000000009265 0 50.0000000045929 109.999999993634 180.000000009209 200.000000014785 220.000000001921 260.00000000731 240.00000000731 240 279.99999999269 230.000000002666 199.999999996345 319.999999998346 369.999999998994 369.999999998988 480.00000002276 349.999999998977 229.999999963097 79.999999996345 120.000000007816 120.000000005747 90.0000000047066 59.9999999942304 110.000000001063 120 100.000000009459 109.999999998917 110.000000004744 79.999999996345 99.999999996345 70.0000000011056 60 40 49.9999999974676 49.9999999988717 70.000000001134 80 80 70.0000000048061 50.0000000011568
300 300.000000003314 359.999999999682 330.000000010777 200.000000003348 180.000000007003 209.999999999864 160 199.999999996606 220.000000007049 260.000000000227 250.000000000108 260.000000003439 269.999999996453 259.999999996356 199.999999996186 189.999999996118 149.999999996282 270.000000006946 179.999999985675 479.999999992826 569.999999981833 609.999999978274 179.999999967446 -110.000000025267 -419.999999992656 -509.999999978388 120 -3.64366314897779e-09 -70.0000000109139 -169.999999996356 -280.00000001462 -389.999999992679 -280.000000003644 -19.9999999816453 39.9999999853685 20.0000000000682 270.000000014774 690.000000003689 1050.00000001483 1220 1079.99999999623 919.999999970851 789.999999988995 589.999999992633 590.000000003729 569.999999996265 509.99999999626 469.999999996254 379.999999992713 329.999999992599 310.000000003763 349.999999992588 259.999999995833 160 150.000000000142 0 279.999999985425 389.999999992872 550.000000003809 720.000000000341 870.000000007816 810.000000007469 669.999999996169 529.999999992519 339.999999995958 199.999999999591 109.99999999979 80.0000000045077 140 29.9999999993179 -160.000000004576 -180 30.0000000007333 189.999999997107 289.999999992457 319.999999992713 249.999999996089 179.999999995811 480.000000016246 770.000000000284 780.000000003644 689.999999991826 649.99999999726 509.999999996663 509.999999986363 739.999999985425 669.99999999174 459.99999998841 389.999999998323 29.9999999916895 -360.000000015962 -699.999999987659 -179.999999996356 -160 -79.9999999927127 -119.999999984675 20.0000000450825 170.000000019378 419.999999989069 550.000000014972 589.999999983407 289.999999973267 319.999999993867 -69.9999999995793 -40 250.000000027666 159.999999991837 39.9999999927127 0 -60.0000000036436 -80 -179.999999996356 -280 -280 -289.999999995873 -300.000000003644 -280 -220.000000003644 -180.000000003644 -149.999999999494 -130.000000000512 -180.000000003644 -120 -90.0000000005286 -139.999999996356 -159.999999996356 -179.999999996356 -219.999999996356 -209.999999999443 -200 -220.000000003644 -220.000000003644 -250.00000000058 -290.000000000585 -280.000000007287 -240 -230.000000000602 -210.000000004252 -250.000000004258 -300.000000004883 -320 -309.999999995725 -299.999999996356 -300.000000004928 -299.999999996356 -309.99999999701 -289.999999999341 -209.999999999335 -189.999999995686 -140 -129.999999995674 -109.999999995669 -109.999999994276 -120 -80 -80 -60.0000000036436 -19.9999999963563 -79.9999999927127 -99.9999999963563 -89.999999999261 -20.000000010931 100.000000001501 319.99999999938 780.000000003644 429.999999972766 59.9999999948102 -110.000000009624 -59.9999999963563 -140.000000003644 -100 -120 -89.9999999955491 -70.0000000008128 -80 -40 -40 -40 -40 -40 -40 -40 -40 -40 -40 -9.99999999911893 30.0000000008868 0 -40 -40 -40 -40 0 0 59.9999999963563 89.9999999972942 129.999999995413 180.000000003644 190.000000008242 200.000000007287 130.00000000461 139.999999996356 179.999999996356 190.000000000983 240 219.99999998509 309.999999995356 300.000000011312 340.000000040887 420.000000001609 269.999999993287 89.9999999953275 70.0000000067473 130.000000008328 100 99.9999999963563 120.000000009402 129.999999989524 80 100.000000003644 119.999999996356 89.999999989447 100.000000013119 119.999999990513 80 99.9999999963563 80 40 49.9999999988717 80 100 89.9999999988546 139.999999998658 140.000000002314 209.999999980619
279.999999992406 249.999999992895 240.000000011204 279.999999996368 259.99999999302 220.000000003359 229.999999999869 249.99999999286 289.99999999601 249.999999996027 180.000000003632 239.999999996368 309.999999999903 359.999999996186 409.999999999915 459.999999996368 499.999999996368 429.999999992804 369.99999999643 740.000000006924 899.99999999647 1029.99999999641 960.000000003632 559.999999993008 -70.0000000033196 -230.000000010783 -470.000000014342 -639.999999992735 -400.000000007253 -489.999999996368 -469.999999989086 -209.99999999277 -560.000000007265 -239.999999996231 279.99999998916 409.999999963575 119.99999995286 89.9999999854253 220.000000003632 120.000000032804 300.000000029058 600.00000000336 700.000000010897 790.000000003712 779.999999992565 530.000000003359 260.00000001051 220.000000011101 180.000000011329 280 310.000000003274 180 140.000000000261 200 299.999999996368 369.999999992588 440 510.000000000159 530.000000000165 570.000000007435 640.000000000352 680 660.000000003632 630.000000003826 600.000000003632 499.999999995958 499.999999993156 499.999999992735 529.999999992514 439.999999992735 249.999999996601 269.999999990297 499.999999997345 739.999999993236 839.999999996879 859.999999992735 799.999999985471 750.000000000273 629.999999988268 399.999999996368 380.000000004212 510.000000011784 500.000000010294 520.000000011511 540.00000000789 560.000000004269 700.000000003632 780.000000006605 640.000000002962 400.000000006582 209.999999999653 -70.0000000155865 -219.999999995651 -210.000000003268 -290.000000000369 -139.999999996368 -49.9999999959868 10.0000000068781 120 329.999999999602 399.999999990717 479.999999987466 490.000000015774 -30.0000000048942 -59.9999999963677 -69.9999999959357 60 369.999999996811 170.000000014978 319.999999990916 -10.0000000004604 -110.000000000466 -139.999999996368 -120 -120 -170.000000004121 -190.000000003138 -220.000000003632 -200 -160 -130.000000004144 -139.999999996368 -160 -179.999999996368 -160 -160 -190.000000000546 -200 -189.999999999443 -200 -200 -210.000000004206 -240 -229.999999999414 -230.000000000591 -260.000000003632 -229.999999999397 -210.000000004241 -240 -229.99999999938 -220.000000004883 -280 -280 -310.000000000642 -309.99999999572 -310.000000004286 -320 -260.000000003632 -229.999999995697 -170.000000002956 -109.99999999705 -100.000000005008 -60.0000000050193 -40 -80 -89.9999999956571 -69.9999999992838 19.9999999963677 -7.26458893041126e-09 9.99999999200213 -29.9999999977831 199.999999988449 219.999999969441 480.000000000904 329.999999984709 259.99999999693 60.0000000036323 -100.000000006747 -240 -280 -249.999999999204 -120 -120.000000008879 -149.999999999187 -80 -60.0000000036323 -40 -40 -40 -40 -19.9999999946624 0 -10.000000000864 0 0 -20.0000000036323 -40 0 0 0 -40 -40 0 0 49.9999999990678 20.0000000018758 69.9999999954241 40 60.0000000036323 120 150.000000004599 139.999999996368 180.000000001677 170.000000002649 130.000000004621 79.9999999927354 110.000000008265 259.999999983066 150.000000034117 119.999999992735 99.999999992275 120.00000000569 50.0000000046668 80.0000000072646 69.9999999953218 150.000000004684 80 89.9999999953047 149.999999995299 80 90.0000000047123 70.0000000025466 60.0000000036323 70.0000000010999 69.9999999988944 90.0000000105985 60 40 50.0000000011283 90.000000001134 139.999999998647 249.999999984325 269.999999995217 280.000000003632 240.00000000959 160.000000009601
250.000000000477 189.999999996226 119.999999996675 140.000000003621 149.999999996515 229.99999999651 210.000000003496 239.99999999614 259.999999996379 280.000000000216 370.000000007344 199.99999998571 299.999999999636 479.999999978274 440 509.999999999926 550.000000003553 520.000000003496 560 520 630.000000010726 710.000000014444 599.999999992963 199.999999992872 -180.000000003621 -139.999999996379 -360.000000010795 -820.000000010829 -360 -400.000000003632 -510.000000003632 -469.999999996294 -129.999999996265 69.9999999964075 190.000000007344 640.000000014643 930.000000003666 799.999999981588 579.999999989251 519.999999989137 399.99999998538 389.999999992684 330.000000004019 460.000000014825 480.000000007424 359.999999988944 209.999999989035 309.999999996271 290.000000003507 200 200 249.99999999651 299.999999996379 360 389.999999996231 420.000000003928 440.00000000756 460.000000007242 520.000000003962 490.000000000176 530.000000003803 540.000000007617 579.999999995993 620.000000003621 620 640 630.000000003837 649.999999996157 620.000000003621 609.999999996146 640 690.000000004354 769.999999996129 860 880.000000003621 929.999999995577 929.999999999727 889.999999999721 759.999999995811 519.999999992178 379.999999999409 220.00000001026 110.000000008163 99.9999999842657 269.999999994986 459.999999992758 299.999999999341 360.000000004292 330.000000011204 290.000000001887 230.000000007594 170.0000000076 -40.0000000043485 -100.00000000436 -200 -329.999999990854 -139.999999995606 -29.9999999923659 230.000000025744 570.000000011266 300.000000007242 399.999999971334 -50.0000000004206 -60.0000000044736 -140.000000003621 -79.9999999955037 -20 9.99999999955094 39.9999999990905 -80 -49.999999995913 -40 -80 -120 -189.999999999511 -160 -169.999999995879 -160 -160 -160 -160 -130.000000004144 -160 -120 -110.000000004161 -120 -120 -160 -160 -170.000000000568 -160 -160 -180.000000003621 -180.000000003621 -190.000000004218 -230.000000000602 -240 -250.000000000614 -189.99999999938 -179.999999996379 -170.000000004252 -219.999999996379 -250.000000004263 -270.000000004269 -300.000000004928 -310.00000000428 -239.999999995049 -160 -89.9999999957026 -80 -69.9999999993122 -40 29.9999999956799 9.99999999929514 -20.0000000036209 9.99999999204192 60 140.000000003621 339.999999971033 770.000000010272 809.999999995634 750.000000004991 370.000000026102 180.000000018105 -29.9999999971465 -180.000000005167 -240 -270.000000004405 -190.000000002831 -160 -139.999999996379 -139.999999996379 -60.0000000036209 -29.9999999991814 0 0 0 0 0 0 0 0 -9.99999999913029 0 0 10.0000000008868 0 0 -29.9999999990962 0 0 0 0 0 0 0 20.0000000055195 40 40 40 89.999999995407 99.9999999963791 90.0000000046043 100.000000001643 60.0000000036209 60.0000000020009 130.000000001006 120 89.9999999953616 70.0000000010232 89.9999999974079 79.9999999927581 40 70.000000002575 49.9999999989484 190.000000008299 89.999999998937 80 70.0000000010743 80 80 89.9999999952877 80 120 49.9999999988887 50.0000000047379 50.0000000011227 150.000000007006 200.000000004974 299.999999989137 269.999999992943 250.00000000247 289.999999997536 249.999999995217 310.000000004789 440
160.000000007219 140 170.000000006793 169.999999996527 129.999999996521 120.000000006969 209.999999999881 239.999999995936 299.99999999639 359.99999999639 380.000000000193 370.000000000273 419.999999996561 429.99999999992 490.000000000074 520.000000003473 540 549.999999999943 589.999999996442 529.999999989308 490.000000007179 469.999999999966 429.999999992866 399.999999989217 279.999999985596 -70.0000000179909 -290.000000021629 -630.000000014438 -569.999999996385 -529.999999996379 -489.999999999983 -369.999999992667 60.0000000144951 330.000000007117 290.000000021856 570.000000029195 760.000000018048 920.00000002143 970.000000014376 1050.00000001839 809.999999996021 499.999999999841 520.00000000017 500.00000000361 520 380.000000003405 339.999999996174 299.99999999639 299.99999999639 299.99999999639 330.000000000131 360 389.999999999858 360 389.999999996237 369.999999999841 420 430.00000000378 440.000000007572 470.000000003791 500.00000000361 509.999999999807 529.999999999801 529.999999999795 560.00000000361 540.00000000361 529.999999999778 510.000000000227 540.00000000361 550.000000007458 600 680.00000000361 690.000000003865 750.000000003871 759.999999999466 829.999999999727 860.00000000361 909.999999996675 869.999999988302 649.999999991894 349.999999999699 89.9999999954696 160.000000001251 410.000000003928 449.999999990513 370.000000019037 360.00000000361 329.99999999244 229.999999985215 249.9999999816 229.999999985204 -30.0000000075829 -70.000000003979 -100.00000000361 -110.00000000399 -160 -219.999999989171 -210.000000004007 -149.999999992377 -9.99999999237161 110.000000011244 69.9999999898364 -130.000000001279 -69.999999999568 -120 -109.999999999557 -50.0000000004491 -89.9999999968452 -139.99999999639 -99.9999999963904 -40 0 -40 -70.0000000040984 -100.00000000361 -110.0000000005 -190.000000004115 -229.999999995879 -230.000000000517 -240 -229.999999995867 -179.99999999639 -179.99999999639 -170.00000000054 -179.99999999639 -190.000000000551 -179.99999999639 -200 -200 -200 -190.00000000058 -200 -219.99999999639 -219.99999999639 -240 -210.000000000608 -250.000000004223 -249.99999999938 -229.999999995765 -160 -160 -220.00000000361 -170.000000004258 -220.00000000361 -250.000000004269 -220.00000000361 -180.00000000361 -120 -110.000000000682 -89.9999999907174 -50.000000004303 -50.0000000006992 -9.9999999970953 -40 49.9999999971067 350.000000013716 810.000000010158 799.999999997857 780.000000009351 580.000000012949 160.000000026768 -19.9999999979025 -279.999999991257 -280 -259.99999999639 -180.000000002052 -80 -109.99999999921 -150.000000004405 -189.999999991979 -40 -29.9999999955776 -19.9999999963904 0 0 0 0 0 0 0 0 0 0 -19.9999999963904 -10.0000000008868 0 0 0 0 -9.99999999908482 0 0 0 59.9999999963904 99.9999999963904 109.99999999734 99.9999999872614 40 160.000000025523 119.999999994446 40 50.0000000045929 120 99.9999999980105 89.99999999539 59.9999999963904 40 90.000000002592 140.000000002046 60 90.0000000046441 160 80 49.9999999953388 90.0000000046668 69.999999998937 49.9999999953218 90.0000000010743 100.00000000361 89.9999999953047 80 80 60.0000000036096 100 49.9999999952735 90.0000000011227 100.000000002257 209.999999989379 210.000000006079 309.999999989345 360.00000000361 420.00000000361 500.000000002325 540.000000002336 419.999999990433 439.999999994031
129.999999999852 170.000000000142 200 160 189.999999992929 250.000000003479 230.000000003712 320.00000000698 310.000000003291 339.999999996209 340 360 400 430.000000003672 399.999999996538 390.000000003536 430.000000000057 490.000000003547 530.000000000045 580.000000003598 600 539.999999989262 600 589.999999999983 489.999999992838 180.000000000011 -179.999999992804 -260.000000007208 -799.999999999909 -549.999999996385 -429.999999999977 -370.000000003627 -390.000000000034 -500.000000003678 -519.999999989205 -279.999999967412 -209.99999998218 -289.999999989268 -129.999999970873 130.000000025705 370.000000014472 460.000000010965 450.000000003325 340 360 349.999999996294 339.999999996174 320 339.999999996402 360 329.999999999864 339.999999996402 349.999999999852 320 369.999999996243 360.000000007526 339.999999996061 330.000000003774 350.000000007742 399.999999996402 390.000000003791 390.000000011391 430.000000003803 450.000000003388 409.999999995754 410.00000000382 380.000000003598 419.999999995936 450.000000003837 510.000000000244 530.000000003848 569.999999999744 620 639.999999999466 720 849.99999999668 970.000000000284 1120 1019.99999999581 639.999999998795 519.999999982009 599.999999989831 629.999999999682 480 490.000000006207 540.000000004269 719.999999992121 439.999999999307 220.000000018696 250.000000007554 349.999999999636 329.999999987358 -49.9999999952763 -7.1963768277783e-09 60.0000000007731 -80.000000011579 -260.000000019583 -539.999999956384 -160.000000008015 -300 -219.999999992804 -240.000000008902 -260.000000003598 -220.000000003598 -189.999999999557 -190.000000007645 -159.99999999909 -100.000000003598 -40 -40 -40 -40 -80 -120 -139.999999996402 -109.999999999494 -180.000000004621 -240 -280 -280 -280 -270.000000004132 -280 -280 -260.000000003598 -240 -220.000000003598 -200 -179.999999996402 -240 -250.000000000585 -280 -280 -280 -299.999999996402 -280 -280 -219.999999996402 -280 -280 -240 -240 -240 -240 -240 -189.999999995731 -129.999999995725 -120 -120 -109.999999995708 -129.999999999301 -120 -59.9999999985789 170.000000002149 409.999999984885 509.999999997129 740.000000003598 399.99999998837 240.000000007816 -9.99999999355395 -190.000000009464 -320 -289.9999999941 -139.99999999331 -40 -40 -120 -149.999999997198 -89.9999999991985 -60.0000000035982 -59.9999999983743 -9.99999999918145 0 0 0 0 0 0 0 0 0 0 0 0 0 0 0 0 0 30.000000009959 139.999999992804 189.999999997334 249.99999999734 219.999999996402 230.000000015342 200.000000018213 99.9999999817646 100.000000009129 149.999999993486 130.000000010129 130.000000004582 69.9999999954127 110.000000004593 89.9999999954014 40 80.00000000922 40 110.000000001023 80 40 70.0000000010402 89.9999999881595 160.000000007196 100.000000003598 70.000000001063 99.9999999964018 109.999999995327 80 80 80 89.9999999989029 80 59.9999999964018 80.0000000071964 89.9999999988773 109.999999998872 209.999999983535 429.999999984826 289.999999990675 370.000000002447 360.000000015422 220.000000009521 349.999999998832 299.999999990456 490.000000003539 549.99999998802
89.9999999998579 190.00000000345 150.000000000392 190.000000007049 180.000000003348 199.999999999773 169.999999992934 300.000000003587 309.999999999903 300.000000010397 250.000000010846 349.999999996493 370.000000003513 420.000000003587 400 449.999999996356 570.000000006918 879.999999996322 829.999999996453 600.000000000068 569.999999999972 670.000000003564 700.000000003587 669.999999996425 500 69.9999999892395 -320.000000007185 -209.999999999989 -170.000000003604 -1289.99999996034 -629.999999978451 -399.999999999932 -300.000000003666 -220.000000003678 -340.000000010556 -410.000000018105 -590.000000010573 -659.999999996413 -560.000000003587 -349.999999996334 -129.999999992571 120 320 330.000000000102 360 329.999999999886 350.000000000119 360 329.999999999869 340 320 309.999999996265 320 280 250.000000003752 280.000000007515 289.999999999824 290.000000000182 300.000000007549 320 310.000000003786 300.000000003587 320.000000003587 349.999999999784 320 320 370.000000000233 390.000000007412 409.999999999756 440 440 480 590.000000003854 720.000000000546 820.000000003587 990.000000000284 1039.99999999942 920.000000007174 949.999999996112 859.999999995799 860.000000003587 949.999999996095 549.999999991854 229.999999984664 110.000000003922 310.000000003928 640.000000007867 400.000000017934 229.999999996055 349.999999986744 489.999999996044 559.999999997164 589.999999992446 529.999999996027 319.99999999888 360.000000002791 -60.0000000035868 -360.000000036374 -1169.9999999764 -389.999999971948 -180.000000007174 -160.000000007174 -149.999999995975 -59.9999999964132 -40 -40 -40 -40 -40 -70.0000000004775 -80 -90.0000000004888 -99.9999999964132 -120 -200 -240 -259.999999996413 -280 -299.999999996413 -329.999999995882 -300.000000003587 -269.99999999946 -229.999999999454 -169.999999999449 -160 -160 -160 -150.000000004161 -160 -200 -220.000000003587 -200 -169.999999995811 -210.000000004195 -280.000000008401 -299.999999996413 -289.999999995788 -280 -280 -259.999999995128 -250.000000004235 -240 -240 -240 -189.999999999329 -160 -120 -120 -130.00000000428 -220.000000003587 -149.999999994299 -80 40 190.000000009339 550.000000017985 750.00000001508 420.00000001076 169.999999999255 -20.0000000137618 -230.000000004343 -299.999999996413 -300.000000003587 -249.99999999564 -89.9999999956344 -60.0000000035868 -80 -89.9999999956174 -80 -90.000000004394 -40 -40 0 0 0 0 0 0 0 0 0 0 0 0 40 0 0 0 0 19.9999999964132 0 0 130.000000004525 190.00000000453 189.99999998829 199.99999999809 130.000000000961 79.9999999980673 69.999999999028 89.9999999990223 50.0000000045702 109.999999999011 80 80.0000000035868 70.0000000010061 59.9999999964132 60.0000000035868 40 40 160.000000009243 169.999999995373 110.000000002541 80 40 40 79.999999990689 90.0000000046611 70.00000000108 69.9999999989143 70.0000000046782 59.9999999964132 59.9999999942076 70.0000000011084 80 99.9999999964132 300.000000018861 360.000000005855 459.999999970669 480.000000005878 469.999999985786 379.9999999941 339.999999985852 310.000000003504 349.999999995239 400 510.000000001185 620.000000008379
59.9999999966974 69.9999999962938 149.999999999875 160.000000003337 160 220 229.999999996527 240 259.999999996606 229.999999989359 170.000000003973 220.000000006855 479.999999985698 409.999999989336 400 469.999999999949 520.00000000706 590.000000017678 699.999999992917 509.99999999651 520.000000007151 580.000000000034 620.000000003553 779.999999992849 529.999999989274 229.999999992843 -40.0000000071736 -90.0000000035925 -180 -440.00000001084 -1759.99999997827 -739.999999967423 -360.000000003575 -269.999999996373 -129.999999996368 -230.000000000062 -530.000000003917 -840.000000003575 -469.999999992451 -279.999999992679 -169.999999996334 80.0000000037687 300.00000000378 370.000000000108 360 400 369.9999999963 360 369.999999996288 320 329.999999996277 300.000000003575 240 220.000000003575 240 200.000000003575 210.000000000182 219.999999996425 229.999999999807 229.999999999801 220.000000003575 260 270.000000003791 290.000000003797 280 309.999999999767 350.000000003814 360 359.999999992349 339.999999996424 450.000000000261 540.000000004644 640 749.999999996703 829.999999999716 800.000000010726 780.000000003575 770.000000003274 700.00000001134 740.000000003575 680.000000007151 680.000000007151 590.00000000033 589.999999981787 629.999999989615 620.000000007151 550.000000004633 540 700.000000004303 660.000000003575 269.999999998124 220.000000007151 120.000000005605 19.9999999992156 -60.0000000007958 -59.9999999956174 -40 -50.000000000415 -390.000000032389 -900.000000002723 -429.999999971084 -160 -59.9999999919623 -9.99999999597548 0 0 -40 -40 -50.0000000004775 -80 -120 -120 -160 -190.000000000506 -230.000000000512 -280 -310.000000000523 -320 -349.99999999589 -320 -309.99999999946 -209.999999999454 -140.000000003575 -160 -160 -160 -149.999999999426 -160 -160 -160 -180.000000003575 -160 -160 -170.000000004189 -170.000000004195 -240 -280 -280 -280 -280 -180.000000003575 -190.000000004235 -219.999999995094 -160 -120 -120 -120 -130.000000000693 -210.000000004275 -189.999999999295 -90.0000000007105 -69.9999999992838 90.0000000057412 300.000000001455 569.999999995691 409.999999997783 259.99999998123 -30.0000000195541 -140.000000015262 -290.000000009436 -210.000000002808 -90.000000007924 -179.999999996425 -89.9999999956401 -80 -90.0000000043712 -89.9999999991985 -99.9999999964245 -49.9999999956117 -40 -40 0 0 0 20.0000000052694 40 40 9.99999999556053 0 0 0 20.0000000035754 19.9999999964245 0 0 0 19.9999999964245 0 0 10.0000000009322 0 0 20.0000000035754 0 49.9999999990393 60.0000000055081 80 49.9999999990223 40 70.0000000009891 80 79.9999999979991 100.000000005588 69.9999999954127 80 60 70.0000000046043 120.00000000922 99.9999999964245 69.9999999953786 40 70.0000000010573 70.000000001063 49.9999999989313 40 40 50.0000000010857 100.000000005758 80 209.999999977445 329.999999986807 259.999999978547 309.999999985906 539.999999998681 819.999999987352 459.999999989274 389.999999986844 310.000000007029 350.000000008308 390.000000008313 329.999999996496 330.000000008325 340.000000013085 409.999999995239 470.000000007148 549.999999995228
40.0000000035641 70.000000000125 70.0000000034447 70.0000000001137 100 100.000000007128 180 209.999999999909 240 289.99999999992 319.999999996288 390.000000010624 460.000000017695 549.999999992929 360.000000003564 340.000000003564 470.000000014217 570.000000000034 490.000000007043 520.000000000045 520.00000000353 549.999999999989 629.99999999643 620.000000003564 569.99999999643 219.999999996413 49.9999999964189 -30.0000000000227 -90.0000000035925 -180.000000010829 -950.00000002903 -950.000000006901 -529.999999996282 -310.000000000057 -379.999999996561 -569.999999996504 -720.000000007276 -669.99999999992 -359.99999999983 -219.999999996254 -49.9999999959527 210.00000000764 390.000000003888 449.999999996322 440 389.999999999875 399.99999999261 380.000000003564 340 280 229.999999996282 190.000000003723 200 169.999999996265 179.999999996083 200.000000000364 209.999999999812 209.999999999807 209.999999999801 219.999999996436 230.000000003774 220.000000003564 240 259.999999996436 270.000000000233 289.999999999761 280 300.000000003564 320 370.000000000261 500.000000004098 640.000000000546 700.000000003564 669.999999995583 549.99999999971 490.00000000386 550.000000003263 470.000000006821 490.000000000313 490.000000003246 490.000000000324 829.999999989637 890.0000000039 950.000000003905 929.999999991831 330.000000074453 529.999999996078 380.000000015712 360 299.99999999925 -49.9999999904503 -199.999999997209 -220.000000007913 -220.000000010692 -140.000000003564 -149.999999999591 -170.000000003979 -139.999999996436 -189.999999992445 -440.000000008856 -839.999999988432 -339.999999991985 -140.000000003564 -60.0000000035641 -40 -40 -60.0000000035641 -90.0000000004775 -80 -120 -160 -179.999999996436 -240.000000001012 -300.000000003564 -339.999999996436 -320 -350.000000000529 -360 -340.000000003564 -320 -219.999999995344 -150.000000004115 -219.999999996436 -219.999999996436 -240 -240 -229.99999999942 -200 -139.999999996436 -149.999999995839 -139.999999996436 -160 -160 -160 -209.999999997061 -240 -280 -299.999999996436 -299.999999996436 -280 -240 -250.000000004229 -249.999999999329 -200 -149.999999995754 -130.000000004252 -130.000000004258 -200 -209.999999999295 -140.000000003564 -40 70.0000000007219 249.999999995708 369.999999990672 450.000000000739 349.999999990638 49.9999999956856 -150.000000005832 -230.000000005849 -329.999999995668 -310.000000002791 -110.000000002785 -79.9999999984311 -80 -119.99999999128 -69.9999999956344 -60.0000000035641 -80 -69.9999999956174 -40 -40 -40 -9.99999999559463 0 40 40 40 40 40 40 0 0 0 40 0 0 0 29.9999999990734 40 40 40 40 40 -7.12816472514533e-09 -7.12816472514533e-09 59.9999999964359 -40.000000011039 80.0000000055309 89.9999999954468 100 80 120 99.9999999944123 99.9999999964359 90.0000000010232 80 109.999999998965 49.9999999989598 40 120.000000003564 80 109.999999997499 399.999999980042 430.000000018213 610.0000000054 619.999999939246 759.999999993673 629.999999990405 409.999999981077 480.000000028513 629.99999998463 730.000000007839 740.000000008077 579.99999998704 520.000000010692 579.999999993889 660.000000015297 600.000000009442 419.999999989461 420.0000000059 329.999999995262 309.999999995256 300.000000003564 230.000000002373 229.999999998803 239.999999994031
-40 -20 0 10.0000000032287 90.0000000001023 89.9999999965439 250.000000007014 300 229.999999996527 290.000000000074 450.00000001387 330.000000000188 359.999999993122 390.00000001416 350.000000000227 359.999999989342 459.999999996447 500 500.000000000045 400.000000007071 439.999999999977 559.999999999989 729.999999992894 660 390.000000010647 120 89.9999999999772 -80 -180.000000003621 -180.00000000008 -810.000000018082 -700.000000003553 -660 -600.00000000723 -620.000000003553 -710.000000000074 -739.999999999841 -639.999999996106 -270.000000003644 -109.999999999903 100.000000003962 400.000000000216 440.00000000378 469.999999996328 480 409.999999996317 389.999999999864 330.000000003695 249.999999996299 209.999999996294 209.999999996606 190.000000000165 179.999999996447 179.999999996447 160 180.000000007481 190.000000000193 200 200 200 200 230.000000000222 229.999999999773 260.000000004019 280 260.000000003553 290.00000000025 330.000000000256 399.999999996447 459.999999995913 599.999999995902 619.99999999589 519.999999999432 419.999999995288 329.999999999704 520.000000004758 519.999999992281 380.000000004803 520.000000007742 509.999999996123 660.000000004212 700.000000003553 740.000000003553 670.000000003206 569.999999998943 450.000000003911 209.999999991803 29.9999999988915 -110.000000001125 -200 -190.000000003939 -49.9999999996078 -40 -80 -139.999999996447 -80 -80 -170.000000003979 -249.999999996879 -530.000000008419 -1000.00000001065 -679.999999969742 -149.999999995993 -40 -60.0000000044849 -80 -239.99999999194 -219.999999996447 -259.999999989342 -319.999999992895 -370.0000000005 -390.000000000506 -400 -370.000000000517 -379.999999996447 -380.000000003553 -360 -360 -320 -280 -249.999999995896 -240.000000001114 -280 -289.999999995879 -280 -240 -240 -220 -209.999999999403 -200 -200 -200 -210.00000000062 -240 -269.999999995816 -299.999999996447 -320 -360 -320 -320 -280 -279.999999991553 -259.999999996447 -219.999999996447 -200 -219.999999996447 -220 -209.999999999295 -139.999999995026 -80 -49.9999999992781 59.9999999949921 270.0000000022 460.000000010061 399.999999993469 169.999999989143 -120.000000005065 -229.999999999238 -350.000000000767 -330.000000004326 -109.999999999221 -80 -80 -80 -80 -80 -40 -40 -40 -80.0000000052125 -89.9999999956117 -59.9999999964473 -29.9999999956003 0 40 40 40 40 40 40 -10.0000000008924 -70.0000000026944 20.0000000018076 40 -8.93578544491902e-09 -19.9999999910528 40 40 40 40 40 50.000000000955 50.0000000045134 60.0000000054854 40 40 -20.0000000035527 10.0000000116472 109.999999995452 119.999999996447 80 89.9999999989882 90.0000000045702 69.9999999989768 40 40 60.0000000035527 50.0000000010459 210.000000002359 489.99999999539 520.000000003553 620.000000006412 819.999999998596 960.000000010658 970.000000003848 769.99999998825 729.999999981662 700.000000034549 810.000000034845 879.99999996977 1059.99999998672 869.99999998526 959.9999999777 869.999999954215 789.999999992778 580.000000003553 580.000000021151 539.999999988245 469.999999999952 400 399.999999998806 300.000000005923 289.999999994085 249.999999995251 260.000000002404 259.999999996447
-40 -40 -40 -69.9999999998977 29.9999999967485 110.00000000345 69.9999999963734 160.000000007242 189.999999996385 150.000000003473 219.999999999875 309.999999992974 309.999999999846 280 300.000000014086 389.99999999302 419.999999989603 340.000000007037 360 400.00000000706 510.000000007088 560.000000003541 670.000000007088 449.999999999943 199.999999999966 160.000000007128 -100.000000007196 -320 -289.999999989257 -360.000000007265 -460.000000003541 -460.000000007196 -520.000000007083 -500.000000003541 -479.999999996311 -430.000000006844 -330.000000010709 -350.00000000681 -149.999999996169 -10.000000003439 319.999999992917 499.999999996459 500 499.999999996459 440 400 360 290.000000003689 259.999999996152 219.999999996459 179.999999996459 200 140.000000003541 160 160 180.000000003541 189.99999999626 190.000000003746 190.000000003752 180 200 230.000000004223 270.000000003774 240 280 280 350.000000004309 410.000000004326 469.999999996726 570.000000003814 540.000000003541 429.999999999716 350.000000003831 360 490.000000000301 650.000000003848 599.999999992292 520.000000007719 680.000000004189 569.99999999547 480.000000003541 499.999999996459 559.999999997152 479.999999991508 199.999999999284 150.000000014529 0 -10.0000000003752 -140.000000005065 -119.999999995686 -40 -40 -80 -180.00000000436 -200 -160 -190.000000003968 -230.000000004837 -229.999999993355 -549.999999998676 -1370.00000000225 -609.999999989734 -309.999999991536 -259.999999996459 -329.999999993389 -419.999999996459 -460.000000004508 -459.999999995481 -440 -409.9999999995 -410.000000004047 -419.999999996459 -420.000000003541 -400 -400 -360 -360 -360 -360 -339.999999996459 -320 -280 -280 -280 -260.000000003541 -229.999999995873 -240 -240 -240 -240 -240 -240 -280 -280 -280 -310.000000004184 -309.999999999352 -320 -310.000000004201 -320 -299.999999995117 -280 -280 -280 -240 -220.000000003541 -209.999999999295 -169.999999999289 -109.999999995742 -49.9999999957367 50.0000000071793 189.999999995725 320 459.999999994969 299.999999994958 79.9999999949466 -80 -230.000000000767 -290.000000004314 -169.999999999221 -120 -120 -89.9999999956628 -80 -80 -80 -80 -80 -80 -120 -60.0000000035413 -120 -40 -29.9999999956003 40 50.0000000008697 80 40 40 40 0 10.0000000062528 60.0000000035413 40 40 19.9999999964587 -7.08268999005668e-09 19.9999999910415 -20.0000000214811 -7.08268999005668e-09 40 40 60.000000005474 80 40 40 69.9999999954696 40 -20 80.0000000035413 109.999999987858 99.9999999929173 80 49.9999999954298 40 40 80 189.999999999613 580.000000030394 490.000000018775 239.999999985835 790.000000053677 899.999999988597 1100.00000001086 1120.00000000165 879.999999982793 1059.99999999118 779.999999954827 1340.00000002177 1439.99999999552 1169.99999997538 1030.00000002494 1070.00000004339 830.000000052805 799.999999996459 1120.00000001525 879.999999958828 819.999999979957 739.999999942304 400 460.000000003541 419.999999986994 320.000000003541 260.000000003541 370.000000003624 399.999999989376
0 0 -40.0000000070599 -100 -3.63797880709171e-10 20.0000000068894 80 90.000000003456 70.0000000000682 99.99999999647 110.000000000057 230.000000007009 180.00000000353 190.00000000349 220.000000006992 270.000000010561 329.999999996493 379.999999996504 340.00000000353 409.999999996464 389.99999999294 359.999999999989 349.999999999966 89.9999999928889 -70.0000000000227 -369.999999996442 -400 -270.00000001063 -410.000000007196 -990.00000003356 -919.999999971419 -369.999999992878 -349.999999996402 -329.999999996396 -250.00000000361 -330.000000000256 -489.999999989319 -180.000000003143 50.0000000036323 289.999999993048 530.000000000114 629.99999999635 579.99999999622 489.999999996339 489.999999996333 409.999999999858 360 309.999999999846 269.999999999841 240 230.0000000037 180 160 150.000000003718 160 160 179.999999996061 209.99999999626 210.000000003746 219.99999999647 260.000000003985 299.99999999647 300 320 319.99999999597 349.999999999744 389.999999996209 430.000000000267 440.000000007606 409.999999999721 339.999999995902 349.99999999676 390.000000000296 459.99999999647 669.999999996777 770.000000000313 739.999999995833 769.999999996794 830.00000000033 699.999999988069 609.999999985539 729.999999996123 579.999999999295 260.000000002814 40 0 -40 -210.000000008964 -259.999999995697 -99.9999999913712 -59.99999999647 -120.000000004337 -139.99999998588 -219.99999998692 -240 -189.999999999574 -190.000000000432 -240.000000000875 -440.00000000619 -860.000000020344 -610.000000014467 -429.99999999954 -409.999999999534 -410.000000004002 -420.00000000353 -430.000000004013 -440 -409.999999999505 -400 -389.999999999494 -340.00000000353 -400 -400 -400 -370.000000002996 -300.00000000353 -290.000000004076 -300.00000000353 -259.999999995356 -300.00000000353 -270.000000000563 -229.999999999432 -220.00000000353 -210.00000000411 -179.999999995299 -210.000000004121 -200 -200 -200 -210.000000000614 -240 -269.999999999375 -300.000000004792 -310.000000004167 -320 -320 -330.000000004184 -270.000000004189 -270.000000000665 -280 -280 -260.00000000353 -249.999999999312 -240 -200 -169.999999999295 -140.00000000353 -120 -80 -40 9.99307303573005e-09 240.000000001478 450.000000004275 400.000000008561 299.999999989916 49.9999999941849 -170.000000004297 -269.999999997243 -199.999999984737 -110.000000000784 -30.0000000027398 -60.00000000353 -60.00000000353 -60.00000000353 -120 -120 -120 -120 -79.9999999947988 -40 -40 0 0 40 40 40 80 80 69.9999999955776 40 40 9.99999999556053 -40.0000000070599 50.0000000079808 49.9999999955435 60.00000000353 40 40 40 59.99999999647 69.9999999990393 80 40 59.99999999647 99.99999999647 40 40 40 50.0000000045361 60 60.000000005565 100 69.9999999954411 59.9999999908709 90.0000000045702 109.999999998954 100.00000000353 80 80 69.9999999975387 390.00000005648 430.00000004639 470.00000008634 339.999999998141 789.999999918288 959.999999984123 1099.99999999384 970.000000051085 1149.99999998381 890.000000010436 1289.99999998348 1270.00000001753 1110.00000004103 969.999999985957 679.99999995423 669.999999978778 769.999999981233 820.000000036448 820.000000003513 599.999999955168 549.999999978692 289.99999998229 240 259.99999999647 309.999999997684 329.999999994159
-19.9999999964814 0 0 0 0 -30.0000000069576 -30.0000000035925 9.99999999993179 80 49.9999999999431 120.000000010147 140.000000003519 140.000000003519 110.000000000034 90.0000000070088 149.999999996504 200.000000007003 340 389.999999999994 389.999999996481 549.999999996476 389.999999992951 299.999999992963 129.999999996504 79.9999999893305 -230.00000000714 -120.000000003439 -240.0000000037 -629.99999997583 -999.999999996027 -649.9999999929 -650.000000000068 -590.000000006963 -550.000000010476 -480.000000021453 -610.000000006946 -309.999999995805 -10.0000000034163 299.999999996697 559.999999996481 680 669.999999999875 579.99999999622 569.999999999863 529.999999996339 459.999999996481 419.999999996481 400.000000000318 280 250.000000003348 230.000000003695 139.999999996118 130.000000000188 150.000000003712 170.000000000199 200 200 220 290.000000000222 300.000000003973 339.999999996481 360 369.999999999756 349.999999996231 360 340.000000003519 349.999999999733 349.999999996208 350.000000000279 359.999999999432 360.00000000058 460.00000000411 549.99999999618 749.99999999327 859.999999996481 859.999999995845 830.000000000324 879.999999996481 870.000000000335 869.999999996822 940.000000004212 600.000000002814 230.000000000358 189.999999996118 89.9999999875968 -40.0000000007503 -109.999999999619 -370.000000000387 -399.999999987875 -179.999999976501 -200 -160 -160 -170.000000000421 -210.000000003945 -240 -190.000000003956 -339.999999997368 -779.999999999176 -469.999999995117 -400 -360 -360 -330.000000003996 -380.000000003519 -400 -360 -389.9999999995 -360 -340.000000003519 -340.000000003519 -310.000000004042 -280.000000003519 -260.000000003519 -280 -270.000000000546 -290.00000000407 -280 -280 -269.999999995916 -250.000000000568 -240 -240 -280 -240 -240 -209.999999995879 -200 -200 -200 -240 -260.000000003519 -310.000000004155 -320 -289.999999999352 -280 -240 -240 -240 -240 -280 -259.999999996481 -240 -220.000000003519 -150.000000004223 -109.999999995771 -80 -129.999999995759 -99.9999999915076 20.0000000085038 110.000000014251 240.000000022061 289.99999999925 309.999999995725 270.00000000428 129.999999987142 -180.000000012102 -350.00000000274 -400 -300 -239.999999991371 -69.9999999921613 -169.999999992156 -149.999999988631 -129.9999999973 -59.9999999948329 -140 -120 -80 -69.9999999956344 -40 0 40 40 40 40 50.0000000008868 80 69.9999999991019 40 40 40 0 -30.0000000009265 30.0000000009322 50.0000000009379 69.9999999990564 50.0000000009493 70.0000000044736 50.0000000009606 70.0000000009663 59.9999999964814 50.0000000009777 70.000000004502 90.0000000045077 59.9999999964814 59.9999999964814 80 69.9999999989882 49.9999999989825 40 40 40 70.0000000066393 40 60.0000000056218 119.999999996481 90.000000001063 99.9999999964814 229.999999980554 110.00000000108 99.9999999964814 409.999999961051 479.99999992441 450.000000009874 770.000000065359 740.000000030962 1060.00000000832 870.000000039262 700.000000010806 1049.99999999307 680.000000031667 870.00000001983 849.99999998366 790.0000000082 869.999999983604 759.999999996481 859.999999987085 520.000000007037 689.999999972934 569.999999974031 389.999999996393 330.000000001208 399.999999991871 419.99999997753 509.999999997706
149.999999996595 69.9999999897682 50.0000000034163 0 0 -80 0 40 59.9999999964928 109.999999999949 80 89.9999999931049 60.0000000035072 50.0000000000284 59.9999999964928 100.000000010488 190.000000000011 329.999999999994 360.000000007014 599.999999992985 629.999999996481 709.999999993003 759.999999989524 699.999999985971 309.999999985937 169.999999996533 39.9999999928036 -400.000000007731 -1240.00000000362 -1170.00000000332 -509.999999985221 -289.999999999926 -269.99999999992 -169.9999999929 -179.999999996493 -230.000000000097 -99.9999999997953 210.000000003615 459.99999999672 650.000000000358 759.999999996493 750.000000000131 730.000000000136 630.000000000142 579.999999996493 529.999999999847 459.999999996174 390.000000000165 269.999999996322 200 180 169.999999999812 149.999999996299 209.999999999801 200 270.000000003718 300.000000000432 330.000000000222 370.000000000227 400.000000003973 409.999999999761 380.000000003996 370.000000003757 349.999999999744 330.000000000261 340.000000003507 350.000000000273 370.000000000279 419.999999996493 449.999999992696 549.999999997379 669.999999996794 799.999999996493 900.000000000625 950.000000000318 919.999999992985 969.99999999967 929.999999991979 949.999999996834 980 960.000000007702 180.000000011954 370.000000000364 209.99999998837 30.0000000073896 -80.0000000035072 -120 -280.000000000784 -320 -350.000000003911 -339.999999995674 -259.999999991326 -200 -200 -200 -210.000000000438 -210.000000003951 -600.000000014114 -1280.00000000182 -629.999999987176 -350.000000000466 -340.000000003507 -340.000000003507 -320 -300.000000003507 -320 -320 -320 -299.999999996493 -280 -240 -240 -240 -240 -219.999999995401 -200 -250.000000007571 -240 -240 -280 -280 -259.999999996493 -240 -240 -250.000000004104 -229.999999999397 -209.999999995885 -240 -240 -250.000000000625 -280 -299.999999996493 -310.000000000642 -320 -289.999999995839 -269.999999995833 -240 -219.999999995151 -209.999999999324 -120.000000007014 -120 -80 -40 -40 -80 -120 -140.000000003507 -160 -99.9999999964927 -69.9999999922465 -19.9999999929855 50.0000000042576 30.0000000127898 100.000000005031 209.999999999233 240.000000003507 189.999999990649 -70.0000000198895 -190.000000012892 -290.00000000781 -280.000000003507 -309.999999999193 -290.000000000813 -290.000000000818 -249.999999995668 -239.999999996493 -199.999999991314 -240.000000008697 -270.000000004354 -119.99999999128 -40 -20.0000000035072 -109.99999999913 -20.0000000035072 40 40 50.0000000008924 49.9999999955946 50.000000004411 40 40 40 9.99999999556621 -9.99999999556053 59.9999999946169 80 59.9999999964928 59.9999999964928 49.9999999990393 50.0000000044736 40 70.0000000009777 80 49.9999999955037 59.9999999964928 69.9999999989995 80 49.9999999989882 100.000000003507 99.9999999964927 100 70.0000000024727 70.0000000045475 80 60 40 100.000000005633 270.000000003206 400.000000007805 89.9999999954127 100.000000005679 159.999999985971 319.999999992553 440.000000001808 590.00000000756 589.999999972437 680.000000015973 689.999999992122 680.000000009504 900.00000001981 819.999999974227 479.999999988643 839.999999984851 849.999999996473 599.999999978962 900.000000009362 689.999999996461 820.000000015262 819.999999976575 740.000000010687 759.999999968037 459.999999963603 580.000000045861 560.000000008384 589.99999999176 580.000000009476
179.999999996504 129.999999999909 120 100 60.0000000033481 70.0000000000682 9.99999999307079 59.9999999965041 99.9999999965041 169.999999999955 80 40 60 40 40 40 150.00000000349 190.000000003496 320 440.000000014029 620.00000001412 1030.00000000352 1199.99999999656 1079.99999998581 669.999999996385 459.999999992826 -70.0000000073498 -350.000000003894 -710.000000043013 -529.999999999795 -409.999999999926 -319.999999996504 -209.999999996419 -240.000000006992 -209.999999996214 -40.0000000032912 230.000000000324 440.000000000227 719.999999989512 969.999999996379 899.999999993008 949.999999996367 769.999999989086 680 639.999999993008 579.999999996186 489.999999996339 339.999999992667 299.999999992656 240 220.000000003871 190.000000000193 250.000000000597 260 310.00000000021 379.999999996504 380 380 380.000000003962 400 400 329.99999999975 350.000000000256 330.000000000261 379.999999996504 440 450.000000000279 499.999999996504 580.000000004076 649.9999999968 749.999999996203 890.000000003803 939.999999996504 1009.99999999619 1030.00000000032 1049.99999999617 1000.00000000417 1030.00000000034 1030.00000000035 899.999999995799 319.999999972664 120.000000004223 90.0000000031264 140.000000006992 69.999999997334 -160.000000000773 -160 -209.999999999602 -190.000000003899 -240 -240 -220.000000003496 -379.999999993008 -250.000000003928 -159.999999996504 -250.000000003939 -260.000000005292 -940.000000018531 -1510.00000001371 -1049.99999996597 -319.99999999556 -280 -240 -240 -240 -290.000000003996 -340.000000003496 -330.000000000512 -369.999999995987 -360 -320 -259.999999996504 -229.99999999946 -240 -290.000000000551 -230.000000000557 -219.999999993008 -209.999999997073 -259.999999996504 -280 -300.000000004655 -280 -280 -270.000000004093 -240 -200 -200 -210.000000004115 -200 -240 -310.000000000637 -360 -360 -320 -280 -240 -220.000000003496 -200 -189.999999999318 -120 -109.999999995811 -80 -59.9999999965041 -49.9999999957936 -90.0000000007162 -120 -140.000000003496 -140.000000003496 -140.000000003496 -120.000000008481 -120 -59.9999999949921 -19.9999999965041 6.99174051987939e-09 90.0000000128068 90.0000000027171 100.000000010488 129.99999999921 100.000000003496 49.9999999991985 -10.0000000026887 9.99999998520365 -200.00000001562 -260.000000003496 -360 -369.999999995669 -289.999999999159 -269.999999995657 -270.000000000853 -220.000000005213 -89.9999999956401 -80.0000000017394 -29.9999999921329 0 59.9999999965041 60.0000000052807 69.999999995606 40 80 80 40 40 40 -59.9999999946283 -40 70.0000000009493 40 40 -30.0000000044622 50.000000000972 6.99174051987939e-09 40 80 80 80 50.000000004502 40 40 70.000000004519 90.0000000045247 89.9999999954696 79.9999999965041 90.0000000045418 99.9999999965041 140.00000000561 119.999999990882 60 119.999999993008 110.000000002416 80 410.000000002404 479.99999999431 520.000000038079 669.999999984908 479.999999976797 260.00000003119 730.000000005627 650.000000011414 670.000000035925 729.999999957316 770.000000006941 780.000000003496 800.000000008146 759.999999982504 580.000000026819 830.000000002402 750.000000010667 750.000000021052 550.00000002365 630.000000009507 610.000000032927 640.00000003418 679.999999970652 510.000000001913 440.00000001541 609.99999998623
110.000000000091 130.000000000085 140.000000003325 99.9999999966633 110.000000003416 180 199.999999996515 139.999999996413 189.999999996561 120 109.999999999966 169.999999999972 199.999999999954 219.999999996515 199.999999999977 179.999999993042 130.000000003485 240.000000013961 120.000000006946 90.0000000033651 429.999999996447 1030.00000001408 1350.000000007 1209.9999999964 839.999999992758 519.999999992826 139.99999998235 -40 -250.000000010658 -320 -270.000000003405 -240 -189.999999996425 -149.999999999903 40.0000000002046 300.000000000432 480.000000000227 750.000000004081 1070.00000000361 1080 1099.99999999249 869.999999992605 800 719.999999996515 649.999999999841 520.000000003485 419.999999996174 399.999999999648 379.999999996515 350.000000000188 319.999999992644 269.999999996714 410.000000000205 440.000000003485 420 380.000000003485 360 350.000000003718 359.999999996038 349.999999999756 349.999999996265 379.999999996004 420 459.999999992497 549.999999996243 599.999999996515 649.9999999968 790.00000000029 850.000000000296 920 940 1020.00000000348 1140.00000000064 1009.99999999968 940.000000003484 1120 949.999999998977 940 1209.99999999687 779.999999992218 409.999999988455 249.9999999934 -140.000000004235 189.999999989603 -139.999999997289 -280 -219.999999996515 -200 -209.999999999591 -179.999999996515 -269.999999996095 -280 -320.000000006969 -319.99999999564 -229.999999996072 -320.000000001796 -689.999999993486 -1290.00000001111 -1669.99999999698 -1569.99999997485 -519.999999985107 -259.999999996515 -260 -200 -200 -180.000000003485 -230.000000003996 -240.000000006969 -300.000000003484 -299.999999998943 -200.0000000059 -210.000000022527 -150.000000008816 -40.0000000115563 -90.0000000029274 -80.000000009328 -150.000000014506 -230.00000000291 -260.000000012773 -299.999999996515 -259.999999996515 -219.999999995333 -200 -220.000000003485 -200 -180.000000003485 -160 -160 -160 -160 -210.000000004127 -260.000000003484 -280 -249.999999999341 -200 -160 -109.999999999324 -70.0000000041666 -49.9999999993122 -40 -40 -40 -40 -60.0000000049169 -120 -160 -139.999999995049 -80 -40 -40 0 -90.0000000042462 -120 -140.000000003484 -150.000000004263 -190.000000000784 -199.999999994935 -219.999999996515 -200 -189.999999999193 -59.9999999965155 80.0000000120906 200 169.99999999917 69.9999999956799 119.999999993031 -1.39380063046701e-08 9.99999999907345 69.9999999956571 9.99999999737952 -6.96900315233506e-09 -69.9999999956401 -70.0000000043656 -9.99999999911324 0 0 40 69.9999999990905 40 50.0000000009209 49.9999999990734 50.0000000009322 40 49.9999999955719 -40 -60.0000000088789 -79.9999999945942 40 59.9999999965155 59.9999999945601 40 0 10.0000000044793 40 40 60 40 59.9999999965155 80 120 99.9999999965155 50.0000000010459 69.9999999989484 100.000000003484 120 99.9999999965155 80 70.0000000045645 100.000000003484 120 430.000000013745 450.00000000494 399.999999970856 140 410.000000006844 380.000000056553 369.999999986153 619.999999980304 680.000000021993 560.000000016234 479.999999994162 719.999999977939 739.99999996864 769.999999977919 690.000000012867 699.999999989546 599.999999984959 620.000000010454 640.0000000292 610.000000014077 580.000000006969 549.999999988327 499.999999984647 550.00000002706 480.000000024841 520.000000002484
