NCOLS 207
NROWS 28
XLLCORNER 21.5
YLLCORNER -49
CELLSIZE 0.5 
NODATA_value -9999 
619.999999993315 720.000000000864 1069.99999994848 399.999999996624 109.999999998306 -20 -40 -140.000000004655 -180.000000004667 -200 -190.000000001722 -200.000000003456 -970.000000016848 -1310.00000000522 -1660.00000000823 -1870.000000003 -2080 -2220.00000000124 -2389.99999999823 -2429.99999998845 -2340.00000000961 -2439.99999998074 -2019.99999999627 -1569.99999999806 -1860 -1849.99999999819 -1499.9999999915 -739.999999981713 -99.9999999889667 30.0000000030752 239.999999987676 670.000000047442 849.999999996908 800.00000000249 1140.00000000372 1009.99999998943 1040.00000000124 909.999999994372 659.999999991229 -2.76259015663527e-08 -970.000000005678 -2189.99999999941 -2630.00000001706 -2930.0000000044 -2889.99999999808 -2449.99999999559 -2440.00000000385 -2459.99999999875 -2419.99999998976 -2149.99999998515 -1509.99999998262 -1220 -319.999999965075 -509.999999985187 -80 -100 -89.9999999823785 260.000000007958 569.999999995515 600 569.999999997993 560 509.999999997982 409.999999996732 369.999999995481 309.999999991405 290.000000003285 400.000000004093 449.99999998476 209.999999996697 89.9999999966917 100.000000001245 70.0000000033196 100.000000006651 70.0000000020861 60.0000000012449 390.000000016388 480.000000005923 890.000000000864 879.999999990297 219.999999992764 120.00000000249 190.000000004621 119.99999999394 -169.999999992326 -279.999999998755 -410.000000003973 -649.99999999718 -669.999999998431 -689.999999998437 -799.999999985067 -769.999999999693 -659.999999993133 -640.000000008123 -649.999999948329 -339.999999984954 -240.000000008026 -310.000000006497 -410.000000002223 -390.000000000983 -450.000000000989 -610.000000000995 -799.99999999502 -1190.00000000177 -2039.99999999393 -2549.99999999388 -2950.00000000227 -3110.00000000763 -4010.00000001636 -4390.00000000229 -4329.99999999771 -4820.00000001715 -4909.99999998225 -4960 -4960 -4960 -4689.99999999892 -4589.99999999175 -4620.0000000106 -4930.00000000952 -4960 -4960 -4669.9999999857 -4699.99999998455 -4339.99999999401 -3969.99999999762 -4089.99999999637 -4339.99999999397 -4380.00000000728 -4269.99999999635 -3849.99999997568 -3680.00000001339 -2949.99999989404 -3349.9999999926 -3839.99999999514 -4199.99999998901 -4110.00000000129 -4070.00000002086 -4239.99999998404 -4020.00000001351 -3830.00000003333 -4550.00000000741 -4749.99999999752 -4740.0000000087 -4650.00000000373 -4960 -4960 -4960 -4960 -4960 -4960 -4960 -4960 -4960 -4960 -4960 -4960 -4960 -4960 -4960 -4960 -4960 -4960 -4960 -4960 -4960 -4960 -4960 -4960 -4960 -4960 -4960 -4960 -4960 -4960 -4960 -5000 -4079.99999988827 -2549.999999897 -1439.99999999548 -1250.00000000229 -1190.00000000104 -1180.00000000914 -1210.0000000156 -1440.00000000827 -1610.00000001268 -2360.00000008718 -4130.0000001243 -4940.00000001045 -4640.00000000222 -4750.00000000545 -4860.00000001547 -4560.00000002739 -4000.00000003914 -3480.00000003112 -3650.00000005611 -4500.00000004474 -4919.99999997769 -4619.9999998969 -2669.99999994431 -1279.99999997258 -719.999999980645 -409.999999997183 -229.999999998423 -210.000000002828 -180.00000000249 -180.000000001245
369.999999993736 880.000000036789 709.999999991559 60 70.0000000004661 -19.9999999987665 -50.0000000029416 -200 -209.99999999705 -200 -260.000000008146 -800.00000001757 -1360.00000000696 -1580.00000000821 -1840.0000000035 -2079.99999999402 -2310.00000000652 -2389.9999999993 -2439.99999999399 -2389.99999999822 -2590.00000000782 -2289.99999998488 -2120 -1779.99999999886 -1930.00000000666 -1870.00000000181 -1539.99999999149 -879.999999969469 -219.999999988978 60.0000000049056 280.000000012301 250.000000037579 750.000000006787 740 1330.00000003041 1560.00000000497 1210.00000000316 789.999999999352 459.999999987443 -460.000000050278 -1550.00000004214 -2570.00000000314 -2810.00000000438 -2840.00000000123 -2549.99999999808 -2380.00000002682 -2540 -2520.00000000388 -2560.00000000512 -2039.99999998193 -1539.99999998457 -1220 -360.000000011568 -209.99999997608 -139.99999999481 -70.0000000007503 -9.99999998635189 300.000000001233 750.000000000767 659.999999994753 630.000000003246 600.000000004036 480 430.000000002029 350.000000002035 330.000000009822 270.000000000421 370.000000012727 429.999999999176 229.99999999381 129.999999999164 30.0000000020748 -20.0000000053944 29.9999999991473 60.0000000078842 140.0000000037 210.000000011244 390.00000000951 250.000000002291 2.46700437855907e-09 -130.000000007611 -179.999999985306 -200.000000001808 -560.000000011624 -780.000000004894 -979.999999993832 -1079.99999998951 -1140.0000000062 -1159.9999999963 -1039.99999999318 -1029.99999999535 -879.999999995623 -739.999999991911 -549.999999999034 -560.000000004411 -350.000000002211 -410.000000004684 -399.999999997533 -229.999999972067 320.000000006935 -630.000000090853 -1420.00000001303 -2490.00000000755 -2640 -2760.00000000452 -3129.9999999994 -4180.00000001572 -4340.00000000123 -4310.00000000352 -4420.00000001712 -4950.0000000023 -4960 -4960 -4960 -4960 -4610.00000000233 -4489.99999999767 -4580.00000001403 -4749.99999999766 -4780.00000003684 -4819.99999997027 -4620.00000000596 -4549.99999999166 -4509.99999999165 -4239.99999999524 -4100.00000000123 -4259.99999999275 -4239.9999999759 -4399.9999999952 -4309.99999999154 -3969.99999999759 -3740.00000000123 -3729.99999998541 -3930.00000000976 -3890.00000002075 -3699.99999999635 -3870.00000000734 -4230.00000003559 -4319.99999999385 -4260.00000000986 -4460.00000000617 -4540.00000002227 -4740.00000001363 -4610.00000004466 -4640.00000002112 -4669.99999999627 -4579.99999999376 -4640 -4960 -4420.00000007745 -4960 -4960 -4960 -4960 -4960 -4960 -4960 -4960 -4960 -4960 -4960 -4960 -4960 -4960 -4960 -4960 -4960 -4960 -4960 -4960 -4960 -4960 -4960 -4960 -4960 -5000 -5000 -4489.99999998907 -2639.99999990542 -1239.99999997353 -729.99999999977 -590.00000000517 -579.999999995816 -620.000000002467 -750.000000002214 -1010.00000000344 -1110.00000000396 -1160.00000000247 -1240.00000000493 -1370.00000001015 -1360.0000000074 -1319.9999999939 -1150.00000000587 -1000.00000000063 -900.000000006168 -860.000000017297 -1030.00000000585 -1420.00000001669 -1770.00000002073 -1669.99999999091 -969.999999985945 -609.99999997905 -209.999999995944 -140.000000006889 -179.999999993099 -170.000000004073 -140.000000006924
289.999999997095 440.000000011642 179.999999993224 120 100.000000001222 -10.0000000029331 -80.0000000058719 -210.000000002939 -249.999999998278 -350.000000009862 -1059.99999999511 -1309.9999999993 -1579.99999999878 -1860.00000000823 -2080.00000000229 -2230.00000000176 -2450.00000000177 -2520.00000000355 -2619.99999999878 -2469.99999999577 -2219.99999999642 -2380.0000000217 -2489.99999998005 -2269.99999997884 -1970.00000000181 -1819.99999999636 -1539.99999999148 -959.999999974364 -229.999999972471 20.0000000049056 179.999999998778 109.999999996925 529.999999995697 960.000000008617 1400.00000003596 1420.00000000375 1259.99999999013 569.99999998812 230.000000000551 -809.999999976933 -1880.00000002393 -2370.00000000695 -2600 -2729.99999999948 -2740.00000000141 -2659.99999999878 -2690.00000000072 -2719.99999999878 -2419.9999999883 -2039.99999999389 -1929.99999999045 -1339.99999997815 -380.000000009112 -159.999999984465 -70.0000000044281 -150.000000008413 270.000000017309 740.000000001558 740.000000001222 690.000000008481 700 709.999999999199 549.999999997971 499.999999998778 520 329.999999992639 170.000000003274 289.999999997942 189.999999997937 79.9999999892793 -10.0000000020748 -30.0000000020805 -80.0000000053944 -90.0000000045361 -119.999999998778 -129.999999996675 -170.000000000887 -249.999999997226 -309.999999989973 -329.99999999543 -490.000000003951 -1420.00000000671 -1589.99999998624 -1569.99999998993 -1619.99999998836 -1559.99999999878 -1539.99999999322 -1459.99999999756 -1370.00000000653 -1450.00000001021 -1519.99999999125 -1379.99999998561 -1039.99999999316 -839.999999997556 -559.999999978178 -459.999999995566 -360.000000002444 -299.999999994321 -330.000000016058 -309.999999995316 -1410.00000017445 -2530.00000000347 -2930.00000000846 -3450.00000000936 -4609.99999997033 -4939.99999999878 -4950.00000000228 -4910.00000000228 -4949.99999999649 -4960 -4960 -4960 -4960 -4960 -4960 -4809.99999995278 -4450.00000000112 -4719.99999999531 -4680.00000001899 -4569.99999999764 -4620 -4479.99999999404 -4479.99999999525 -4369.99999999409 -4160.00000000599 -3850.00000002162 -4299.99999998797 -4310.00000000118 -4440 -4419.99999998063 -3920.00000001696 -3949.99999998906 -3920.0000000158 -3309.99999998782 -4069.99999998413 -3719.99999999267 -3789.99999995345 -4540.00000002333 -4480.00000000737 -4349.99999998648 -4620.00000000495 -4700.00000001237 -4659.99999998883 -4339.99999999746 -3820.00000006851 -4639.99999999878 -4640 -4669.99999998498 -4880.00000002246 -4960 -4960 -4960 -4960 -4960 -4960 -4960 -4960 -4960 -4960 -4960 -4960 -4960 -4960 -4960 -4960 -4960 -4960 -4960 -4960 -4960 -4960 -4960 -4960 -4960 -4960 -5000 -5000 -4779.99999992747 -2479.99999997675 -1329.9999999799 -689.999999977413 -429.999999996069 -389.999999996064 -380.000000001222 -389.999999997274 -430.00000001186 -460 -480.00000000793 -480.000000002444 -509.999999998468 -510.000000013168 -509.999999984951 -449.999999999673 -380.000000001222 -360 -420.000000001222 -419.999999995634 -510.000000007688 -590.00000000575 -519.999999994378 -429.999999992772 -280.000000002444 -169.999999997172 -160 -149.999999998383 -120 -140.000000006924
139.999999997834 120 160.000000001211 99.9999999978001 50.000000005133 40.0000000034333 -60.0000000092996 -200 -210.000000001728 -900.000000016291 -1450.00000000643 -1680.00000000349 -2030.00000001104 -2390.00000000055 -2390.00000000055 -2410.00000000177 -2530.00000000298 -2660.00000001075 -2699.99999999885 -2469.99999999221 -2349.99999999937 -2290.00000000662 -2649.99999999821 -2179.99999998549 -1929.99999998848 -1589.99999999453 -1279.9999999951 -639.99999996457 -29.9999999944748 40 229.999999998147 249.99999999572 780.000000017241 1010.00000000187 1030.0000000193 999.99999998642 899.999999995015 499.999999997425 9.99999998307771 -1140.00000003652 -2039.99999999599 -2470.00000001704 -2730.00000000697 -2819.99999999879 -2769.99999999807 -2740.00000000267 -2709.99999999296 -2469.99999998541 -2170.00000000196 -2580.0000000169 -1909.9999999708 -1359.99999998695 -789.9999999956 -279.999999989643 -70.0000000032003 -100 310.000000008794 810.00000000723 799.999999994765 760.000000006457 679.999999990695 680.000000004059 679.999999993508 539.999999989416 429.999999995532 259.999999995896 229.999999992616 170.000000004485 29.9999999991417 -49.9999999979252 -210.000000010402 -220.000000006594 -189.999999995487 -249.999999999676 -339.999999995157 -399.999999993946 -690.000000009959 -899.999999971538 -1150.00000003251 -2049.99999999429 -1979.9999999896 -1910.00000000578 -1990.00000001625 -2039.99999999758 -1929.99999999905 -1760 -1749.99999999662 -1719.99999999201 -1689.99999999297 -1630.00000000657 -1610.00000000098 -1469.99999999098 -1209.99999999217 -1069.99999999094 -969.999999994151 -859.999999998789 -660 -339.999999989478 -139.999999998789 -200.000000012614 -410.000000003462 -1210.0000000661 -2950.00000005783 -4900.00000002087 -4960 -4960 -4960 -4960 -4960 -4960 -4960 -4960 -4960 -4960 -4960 -4960 -4649.99999999297 -4570.00000000356 -4470.00000000115 -4399.99999999528 -4430.00000000952 -4339.99999998334 -4410.00000000359 -4240.00000001317 -3960 -3870.00000000119 -4059.99999997477 -4320.00000001447 -4350.00000000605 -3400.00000001331 -3970.00000000606 -4120.00000001093 -4130.00000001581 -4140.00000001219 -4310.00000000855 -4570.00000000245 -4560 -4579.99999998651 -4559.99999998528 -4730.00000000126 -4250.00000005296 -4710.00000000249 -4599.99999999502 -4469.99999998024 -4550.00000001615 -4480.00000003115 -4629.99999999003 -4570.00000000252 -4560 -4460.00000002125 -4509.99999999215 -4630.00000000981 -4550.00000000376 -4670.00000002004 -4960 -4960 -4960 -4960 -4960 -4960 -4960 -4960 -4960 -4960 -4960 -4960 -4960 -4960 -4960 -4960 -4960 -4960 -4960 -4960 -4990.00000000389 -5000 -5000 -5000 -2379.99999993516 -1229.99999998527 -729.999999977408 -370.000000002714 -269.999999982768 -250.000000009388 -210.000000003942 -269.999999996052 -250.00000001065 -340.000000003632 -380 -350.00000000397 -369.999999997235 -370.000000002771 -370.000000002777 -360 -329.999999997212 -229.999999998417 -159.999999994401 -120 -140.000000001211 -159.999999994367 -159.999999994355 -100.000000001211 -120 -110.000000002839 -89.999999997155 -80 -120
169.999999998306 69.999999997101 29.9999999982947 29.9999999970896 69.9999999958845 50.0000000075658 -140.0000000093 -200 -430.000000020401 -1120.00000001176 -1490.00000001232 -2180.00000001161 -2749.99999999584 -2649.99999999704 -2639.99999999407 -2559.99999999645 -2610.00000000178 -2740 -2719.99999999522 -2529.9999999958 -2530.0000000018 -2439.99999998797 -2650.00000000544 -2410.00000000058 -1959.9999999818 -1319.99999998176 -739.999999990183 -109.999999993275 90.0000000067416 249.999999995748 330.000000005576 469.999999989478 680.000000006139 810.000000011778 1179.99999999744 1160.00000000755 470.000000006878 220.000000001199 -370.000000020736 -1600.00000003776 -2030.00000001198 -2560.00000001393 -2920.00000000891 -2640.00000000773 -2690.00000000194 -2720.0000000012 -2529.99999999175 -2489.99999999956 -2530.000000011 -2549.99999998897 -1809.99999996991 -1239.99999997422 -909.99999997338 -39.999999996021 -50.0000000019952 10.0000000020009 160.00000002085 849.999999997988 809.999999997982 749.999999997976 660 740 779.999999998801 730.000000002046 530.000000000853 449.999999996743 270.000000002063 110.000000012744 -40 -239.99999998808 -880.000000004121 -1599.99999998262 -1819.99999998741 -1599.9999999928 -1339.99999998437 -1590.00000003286 -1859.99999998912 -2060.0000000012 -2239.9999999988 -2199.99999999213 -2310.00000000523 -2289.99999999545 -2179.9999999988 -2110.000000012 -2079.99999999327 -1929.99999999543 -1880 -1870.00000000338 -1740 -1670.00000000339 -1580.0000000012 -1489.99999998979 -1269.99999999659 -1210.00000000222 -1219.9999999988 -1099.99999999314 -989.999999996567 -839.999999998801 -769.999999988466 -419.999999988597 -389.999999997743 -780.000000047265 -2770.00000001614 -2750.00000000347 -4960 -4960 -4960 -4960 -4960 -4960 -4960 -4960 -4960 -4960 -4960 -4889.99999998119 -4600.0000000024 -4430.00000000356 -4369.99999999764 -4300.00000001307 -4279.99999999405 -3579.99999999172 -3399.9999999976 -3350.00000001435 -3320.00000000958 -3380.0000000024 -3080.00000001083 -3600.00000000363 -3489.99999998795 -3550.00000001092 -3650.00000000729 -3079.99999994409 -3970.00000000724 -4090.00000001694 -4069.99999999515 -4530.00000001469 -4589.99999999634 -4699.9999999964 -4830.00000000248 -3989.99999991828 -4279.99999995097 -4360.0000000048 -4680.0000000074 -4060.00000003844 -4190.00000002237 -4589.99999999988 -4609.99999999004 -4650.00000000492 -4479.99999997494 -4379.99999999492 -4179.99999997725 -4310.00000000375 -4430.00000000495 -4500.00000002016 -4340.00000000753 -4590.00000002211 -4890.00000001373 -4960 -4960 -4960 -4960 -4960 -4960 -4960 -4960 -4960 -4960 -4960 -4960 -4960 -4960 -4960 -4960 -4960 -5000 -5000 -5000 -5000 -3289.99999989584 -1229.99999997083 -649.99999998283 -370.00000000272 -259.999999998801 -259.999999994537 -230.000000002737 -250.000000002743 -259.999999993304 -309.999999999645 -260.000000001199 -240 -240 -199.999999993247 -200 -189.999999996012 -180.000000006787 -120 -120 -100 -110.000000004016 -120 -189.999999995973 -119.999999991934 -119.999999991923 -149.999999995956 -99.9999999918998 -79.9999999988006 -80
89.9999999971123 60.000000001188 29.999999999477 80 110.00000000291 119.999999995356 -140.00000000465 -180 -380.000000007043 -930.000000020458 -1830.00000002276 -2649.99999999824 -2860.00000000352 -2889.99999999704 -2889.99999999704 -2779.99999999881 -2539.99999998335 -1369.99999995284 -2750.0000000197 -2730.0000000018 -2729.9999999922 -2700 -2509.9999999909 -2299.99999999516 -2099.99999998911 -1149.99999995205 -229.999999989603 -9.99999999696456 190.000000004371 279.999999995094 370.000000001864 380.000000026006 619.999999998624 680.000000004752 960.000000008527 1049.99999999313 300.000000001188 39.9999999861984 -820.000000028859 -1930.00000000812 -2410.00000001079 -2830.00000000193 -2909.99999999926 -2669.999999993 -2700.00000000659 -2880.0000000039 -2749.99999999567 -2680.00000000392 -2639.99999998976 -2259.99999999487 -2099.99999997229 -959.999999987716 -949.99999995311 -109.999999996817 -40 -29.9999999968054 460.000000004025 790.000000009618 770.000000003212 659.999999994753 680.000000010516 750.000000004417 819.999999994719 799.999999995896 679.999999994697 510.000000002063 400 29.9999999896261 -150.000000007429 -1070.00000001104 -1909.99999999434 -1970.00000000091 -2140.00000000302 -2240.00000000487 -2179.99999998864 -2160.00000001391 -2310.00000000519 -2369.99999999549 -2489.99999999549 -2529.99999999786 -2459.99999999022 -2309.99999999547 -2169.99999999665 -2200 -2079.99999998894 -1989.99999999663 -1900.00000000119 -1830.00000000338 -1729.99999999781 -1649.99999999661 -1539.99999999321 -1449.9999999966 -1379.99999999881 -1380 -1369.9999999954 -1230.00000000342 -1119.99999999881 -1029.99999999657 -919.99999999431 -869.999999998931 -739.999999991911 -449.999999971271 -400.000000002376 -2300.00000008797 -3930.00000029138 -4960 -4960 -4960 -4960 -4960 -4960 -4960 -4960 -4960 -4960 -4599.9999999953 -4480.0000000059 -4430.00000000355 -4299.99999999408 -4209.99999999763 -4210.00000000951 -3669.99999994283 -3399.99999999403 -3339.99999997731 -3539.9999999952 -3470.00000002879 -3220.00000003133 -3760 -3629.9999999855 -3720.00000001328 -3689.9999999915 -3729.99999998304 -3650.00000000364 -3849.99999999145 -4030.00000000619 -4460.00000000612 -4660.00000000613 -4789.99999999752 -4840.00000000119 -3939.99999988619 -4720.00000000736 -4659.99999999881 -4659.99999998141 -4529.99999999155 -3850.00000001852 -4589.99999996633 -4160.00000003596 -4399.99999998987 -4389.99999999865 -4239.9999999788 -4100 -4000.00000000238 -4130.00000003649 -4149.99999998836 -4060.00000000238 -4060.00000000119 -4040.00000001033 -4300.00000002979 -4960 -4960 -4960 -4960 -4960 -4960 -4960 -4960 -4960 -4960 -4960 -4960 -4960 -4960 -4960 -4960 -5000 -5000 -5000 -5000 -4579.99999986129 -1549.99999995402 -649.999999981648 -439.999999994549 -239.999999994537 -259.999999998812 -260.000000006673 -280 -250.000000002754 -190.000000010655 -220.000000006719 -240 -209.999999996035 -200 -200 -159.999999993224 -120 -129.999999997195 -120 -129.999999997183 -120 -19.9999999931561 -50.0000000040217 -29.9999999995367 -100.000000006878 -69.9999999983373 -80.0000000080888 -69.9999999971379 -90.0000000040558
39.9999999908255 9.99999999711235 20.0000000011767 60.0000000046214 70.0000000029047 59.9999999918884 -150.000000001737 -179.999999995345 -400.000000014001 -1200.00000002807 -2090.00000002169 -2830.00000000294 -2969.99999999588 -2940 -3000 -2859.99999998933 -2069.99999996378 -2140.00000000489 -2200.00000000478 -2679.99999999521 -2619.9999999952 -3000.00000000599 -2499.99999999035 -2249.99999999216 -2299.99999999148 -1039.99999994772 -79.9999999951285 110.000000000676 330.000000006753 319.999999998823 309.99999999813 630.000000004451 779.999999998823 720.000000012255 980.000000028342 819.999999982458 60.0000000011767 -100.00000001146 -1130.00000000692 -1799.99999999882 -2550.00000000578 -2640.00000000353 -2519.9999999973 -2470.00000003822 -2809.99999999805 -2770.00000000431 -2840 -2649.99999999292 -2539.99999998858 -2619.99999999882 -2319.9999999462 -1039.99999999176 -979.999999967821 -189.999999987642 -29.9999999979934 10.0000000095667 400.000000005213 890.000000051909 749.999999981088 720.000000002893 600.000000007611 570.000000005576 629.999999999125 529.99999999265 329.999999994986 229.999999997931 120.000000001177 -19.9999999976467 -250.000000003263 -1790.00000000693 -2490.00000000629 -2500.00000000303 -2660.00000001079 -2759.99999999695 -2599.99999999576 -2469.9999999967 -2489.99999999669 -2519.9999999922 -2479.99999999454 -2399.99999999453 -2349.99999999785 -2299.99999999018 -2179.99999999449 -2110.00000000217 -2030.00000000218 -1979.99999999446 -1939.99999999882 -1859.99999999882 -1769.99999999662 -1729.99999999221 -1649.99999999779 -1549.999999991 -1439.99999999438 -1440 -1379.99999999436 -1289.99999999541 -1219.99999999433 -1049.9999999954 -929.999999997743 -950.00000000914 -1029.99999999874 -779.999999987375 -570.000000001103 -460.00000000457 -1080.00000002328 -3850.00000004914 -3870.00000001985 -3720.00000000235 -3660.00000000463 -3620.00000000118 -3610.0000000035 -3659.99999999882 -3930.00000001876 -4160.00000001767 -4470.00000006115 -4509.99999998704 -4420.0000000059 -4310.00000000472 -4279.99999999408 -4180.00000000711 -4140.00000000595 -3599.99999999882 -3569.99999999525 -3290.00000003946 -3299.99999998085 -3310.00000003608 -3570.00000003615 -3750.00000000242 -3700.00000000486 -3830.00000000243 -3949.9999999952 -3880.00000003035 -4010.00000000736 -4149.99999998792 -4230.00000000622 -4400 -4449.9999999987 -4730.00000001333 -4669.99999999634 -4769.99999999751 -4400.00000003704 -4700.00000001119 -4479.99999997671 -3829.99999992665 -4159.9999999684 -3889.99999998467 -4030.00000000335 -4399.99999998749 -3969.99999997787 -4329.99999999 -4370.00000000373 -3999.99999997993 -3540.00000000909 -3769.99999999978 -3680.00000001384 -4010.00000000376 -4080 -3889.99999999623 -4430.00000002124 -4960 -4960 -4960 -4960 -4960 -4960 -4960 -4960 -4960 -4960 -4960 -4960 -4960 -4960 -4990.00000000386 -5000 -5000 -5000 -5000 -4679.99999991368 -2069.99999993729 -809.999999982842 -450.000000003908 -269.999999988259 -240 -229.999999997252 -240 -260 -240 -249.999999996052 -199.999999998823 -200 -199.999999998823 -279.999999996766 -100.000000001177 -79.9999999932129 -80 -80 -70.0000000039989 -49.999999997172 -50.0000000028336 -30.000000004016 20.0000000011767 40 59.9999999988233 60 40 20.0000000069235
69.999999998289 -9.19726517167874e-09 -5.7752913562581e-09 29.999999998272 90.0000000063665 -50.0000000063835 -130.000000002908 -69.9999999982549 -560.000000018667 -1380.0000000199 -2190.00000001583 -2760.0000000094 -2940.00000000117 -2980.00000000117 -2969.99999999822 -2959.99999999167 -2729.99999999228 -2630.00000000657 -2659.99999999405 -2630.00000001749 -2739.99999999883 -2879.99999998789 -2489.999999997 -2370.00000000184 -2289.99999999816 -969.999999971521 -69.9999999932754 350.000000015342 529.999999993241 510.00000000561 599.999999992752 700.000000019713 769.999999976023 900.000000001455 970.000000022914 469.999999969731 3.8198777474463e-09 -590.000000040723 -1630.00000001578 -1800.00000001004 -2360.00000001239 -2359.99999999729 -2189.99999999689 -2290.00000000195 -2160.00000000658 -2150.0000000062 -2710.00000001056 -2679.99999999372 -2699.99999999954 -2179.99999999673 -1899.99999998806 -929.999999969896 -1019.9999999925 -139.999999978121 -49.9999999956572 -49.9999999916156 490.000000020606 770.000000046794 410.000000017167 459.999999993003 270.000000016058 360.000000005269 350.000000002058 360.0000000017 130.000000005565 29.9999999967599 -60.0000000094872 -179.999999997669 -720.000000054177 -2330.00000003659 -2629.9999999979 -2730.00000000327 -2710.00000000211 -2680.00000000117 -2629.99999999787 -2590.00000000097 -2560 -2490.00000000331 -2440 -2389.99999999785 -2349.99999999667 -2279.99999999334 -2160 -2069.99999999899 -2029.99999999782 -1989.99999999665 -1910.00000000336 -1920 -1849.99999999546 -1790.00000000221 -1719.9999999888 -1569.99999999661 -1509.99999999661 -1489.9999999966 -1429.99999999776 -1309.99999999775 -1330.00000000225 -1300.00000000117 -1169.9999999989 -989.999999993196 -919.999999994287 -819.999999994276 -689.99999999655 -680.000000006912 -639.999999998835 -2650.00000009024 -3590.00000000347 -3630.00000000231 -3580.00000000117 -3489.99999999767 -3499.99999999883 -3660.00000000584 -3629.99999999999 -3660.0000000082 -3620.00000001175 -3520 -3519.99999999526 -3489.99999999763 -3479.99999998582 -3680.0000000142 -3580.00000000233 -3440.00000000233 -3259.99999998778 -3380.00000000015 -3150.00000000724 -3410.00000000726 -3720.00000001086 -4000.00000002294 -4010.00000000614 -4120 -4089.99999997448 -4209.99999998307 -4259.99999999159 -4350.00000000739 -4299.99999999506 -4240.00000000233 -4200.00000000583 -4279.99999999619 -4140.0000000035 -4640.00000001582 -4760 -4620.00000001622 -4750.00000002343 -4760 -4839.99999999262 -4620.0000000074 -3769.99999996825 -3810.00000003847 -3440.00000000117 -3760.0000000035 -4370.00000000023 -4309.99999999907 -4129.99999998248 -3679.99999999018 -3440.0000000075 -3920.00000002939 -4379.99999997808 -4080.0000000191 -4380.00000000638 -4390.00000000378 -4369.99999999738 -4960 -4960 -4960 -4960 -4960 -4960 -4960 -4960 -4960 -4960 -4960 -4960 -5000 -5000 -5000 -5000 -5000 -4639.99999989199 -2689.99999992878 -1139.99999996336 -519.999999984391 -299.999999984368 -249.999999997252 -240 -240 -240 -240 -200 -200 -219.999999998835 -200.000000002331 -109.999999998366 -99.999999992059 -60 -60.0000000067985 -60.0000000068098 -80 -30.0000000039989 6.84394763084128e-09 40 39.9999999931333 60.0000000011653 40 70.0000000028677 49.9999999959613 30.0000000040444
40 -10.0000000028763 0 9.99999999826628 90.0000000005855 -90.0000000005912 -100.000000001154 -130.000000015717 -760 -1780.00000003159 -2250.0000000123 -2720 -2850.00000000524 -2809.99999999937 -2829.99999999936 -2749.9999999982 -2700.00000000476 -2609.99999999096 -2779.99999999291 -2790.00000000413 -2720.00000000596 -2969.99999998739 -2549.99999998872 -2650.00000000668 -1979.99999997484 -1399.99999996392 -59.9999999879492 270.000000018821 459.999999997414 460.000000004906 630.000000015177 669.999999999267 810.00000000914 989.99999999464 689.999999980554 359.999999975131 19.9999999950148 -840.000000026137 -1659.99999999499 -2020.00000002008 -2100 -2350.00000000468 -2439.99999999769 -2029.99999999138 -1770.00000000473 -2030.00000000705 -2660.00000001183 -2699.99999998467 -2459.99999999488 -2080.00000003478 -1519.99999997091 -930.000000008924 -840.000000017809 -40 -40 59.9999999936449 320.000000009271 329.999999989279 219.999999993611 149.999999997954 130.000000003206 429.999999999096 300.000000018639 50.0000000085151 9.99999999907914 -130.000000000927 -179.999999998846 -410.000000023442 -2090.00000001846 -2600.00000000726 -2740 -2739.99999999462 -2750.00000000327 -2659.99999999459 -2629.9999999913 -2589.99999999786 -2520 -2480 -2429.99999999669 -2450.00000000101 -2369.99999999668 -2259.99999999885 -2160 -2110.00000000334 -2069.99999999666 -2000 -1959.99999999329 -1920 -1840 -1829.99999999778 -1769.99999999662 -1629.99999999777 -1540.00000000115 -1480 -1469.9999999966 -1339.99999998869 -1099.99999999213 -859.999999997783 -869.999999998886 -669.999999993179 -660.000000001154 -810.000000003439 -739.999999982793 -630.000000012636 -650.000000002302 -1170.00000002077 -3609.99999999769 -3279.9999999907 -3370.00000001044 -3469.99999999651 -3540.00000000468 -3730.00000000119 -3559.99999999415 -3550.00000000707 -3569.99999999291 -3569.99999997881 -3640.00000000115 -3619.99999999293 -3509.99999999646 -3470.00000003091 -3529.99999998687 -3449.99999998684 -2459.99999994031 -2850.00000004889 -3150.00000000819 -3550.00000002874 -3939.99999999514 -3940.00000000602 -4080.00000000719 -4029.99999997308 -3800.00000003347 -4190.00000000968 -4219.99999998668 -4449.99999999144 -4329.99999997887 -4159.99999998777 -4140.00000001456 -4279.99999999271 -3340.00000000962 -4300.00000000616 -4159.99999991935 -4409.99999996698 -4959.9999999791 -4520.0000000462 -4790.0000000099 -4660 -4229.99999994637 -3330.00000002987 -4230.00000001278 -4400.00000002049 -4719.99999998281 -4719.99999999769 -4609.99999997388 -4259.99999999022 -3709.99999990645 -4050.00000007238 -4059.99999998266 -3830.00000002401 -4859.99999999654 -4620.00000000524 -4479.99999999475 -4540.00000010951 -4909.99999999967 -4960 -4960 -4960 -4960 -5029.9999999992 -5019.99999999654 -5019.99999999654 -4960 -4960 -4960 -5000 -5000 -5000 -5000 -5000 -4469.99999987575 -2999.99999988836 -1399.9999999758 -669.99999998831 -379.999999993349 -299.999999995646 -269.999999998394 -240 -240 -259.999999998846 -210.000000002782 -259.99999999327 -159.999999994412 -120.000000001154 -80 -59.9999999932243 -49.9999999960295 -59.9999999932015 -80 -79.9999999920249 49.9999999891742 40.00000000569 60 40 69.9999999971379 40.0000000068894 49.9999999959726 29.9999999971209 69.9999999971152
-40 9.99999999712941 0 -19.9999999953786 19.9999999883869 -109.999999998249 -3.50723894371185e-09 -280.000000012824 -910.000000036812 -2020.00000000707 -2290.00000001813 -2610.00000000762 -2749.99999999479 -2599.99999998941 -2650.00000000294 -2680 -2779.99999999524 -2630.00000001975 -2729.99999999818 -2720.00000000114 -2780.00000000366 -3149.99999997776 -2670.0000000007 -2749.99999999217 -2469.99999999815 -2059.99999998199 -719.99999994443 150.000000013921 330.000000001876 410.000000006787 529.999999987136 620.000000002285 940.00000000494 1010.00000001257 749.999999994662 369.999999978189 -60.0000000088278 -920.000000035402 -1860.00000003163 -2070.00000000537 -2430.00000001978 -2699.99999998487 -2529.99999999462 -2269.9999999969 -2540.00000000279 -2450.00000000935 -2630.00000000312 -2629.99999999802 -2479.99999999602 -1579.99999990021 -1400.00000005716 -79.9999999713509 -90.0000000496584 -50.0000000031605 -40 50.0000000164903 1080.0000000267 750.000000003183 439.999999980867 120 40.000000005258 110.000000007776 -10.0000000020691 -139.999999998857 -159.999999998857 -419.99999999846 -1320.00000002129 -2199.99999999354 -2279.99999999886 -2750.00000001933 -2859.99999999463 -2819.99999999462 -2739.99999999346 -2650.00000000213 -2619.99999999458 -2569.99999999671 -2459.99999999886 -2480 -2509.9999999967 -2489.99999999783 -2359.99999998903 -2209.99999999782 -2129.99999999782 -2080 -2090.00000000219 -2019.99999999886 -1979.99999999886 -1920 -1889.99999999664 -1840 -1759.9999999944 -1629.99999999101 -1540.00000000114 -1499.99999999437 -1469.99999999661 -1249.99999998529 -749.999999993213 -500.000000001143 -520.000000001143 -659.999999986312 -590.000000007998 -680 -649.999999997704 -479.999999993111 -720.000000003473 -1390.00000001848 -3250.0000000001 -3409.99999998846 -3280.00000000352 -3360.00000000696 -3410.00000000577 -3380.00000000114 -3400.00000000585 -3460 -3420.00000000849 -3489.99999999191 -3680 -3709.9999999917 -3430.00000002587 -3640 -3329.99999997153 -3399.99999999062 -3179.99999999289 -3539.99999998004 -3039.99999999657 -3460.0000000263 -3640.00000000229 -3850.00000003111 -3720.00000000408 -4060.0000000121 -4120.00000001212 -4149.99999999639 -4200.00000000837 -3759.99999988232 -3680.00000006405 -4099.99999998817 -3930.00000000395 -3969.99999999022 -4390.00000001524 -4840.00000001734 -5059.99999999268 -4899.9999999961 -4869.99999999862 -4360.00000012514 -4670.00000000647 -4560.0000000136 -4149.99999993899 -3649.99999997923 -3929.99999994335 -4459.99999998346 -4600.00000000629 -4590.00000000601 -4510.00000001118 -4459.9999999885 -3999.99999995048 -3520.00000004846 -4109.99999999689 -2919.99999994809 -4260.00000001161 -4190.00000003182 -4489.99999999509 -4460.00000000527 -4359.99999999515 -4790.00000001852 -4930.00000000379 -4880.00000001177 -4949.99999999848 -5010.00000000381 -5150.00000001031 -5060.00000000536 -5089.99999999731 -5109.99999998311 -5009.9999999973 -5000 -5000 -5000 -5000 -5000 -5000 -3679.99999994135 -2759.99999989784 -1369.9999998876 -619.999999957197 -489.999999978203 -280 -209.999999994944 -200 -169.999999997218 -149.999999997212 -110.000000002794 -80 -69.9999999971948 -50.0000000039534 -20.0000000011426 -40.0000000011425 -59.9999999988574 -60.0000000011425 20 10.0000000039876 50.0000000039933 40 40 30.0000000028677 29.9999999971266 20.0000000069008 20.0000000069122 39.9999999977149
-30.0000000028592 -49.9999999971351 19.99999999539 109.999999997124 -160 -9.99999999711235 -90.0000000041467 -570.000000027302 -1330.0000000193 -2080.00000000355 -2460.00000001423 -2869.99999999238 -2729.99999999482 -2749.99999999122 -2679.99999999887 -2790.00000000655 -2840 -2789.99999999705 -2759.99999999409 -2860.00000000253 -3020.00000001441 -3159.99999998187 -2769.99999998511 -2900.00000001081 -2789.99999998392 -2449.99999997191 -1959.99999998799 40.0000000071452 219.999999998869 290.000000005662 410.000000003024 510.000000001899 739.999999992383 680 650.00000001184 459.999999974682 -310.000000031838 -1260.00000001046 -1790.00000001195 -2379.99999999887 -2540.00000001396 -2290.00000000473 -2579.9999999871 -2399.99999997463 -2609.99999998788 -2420.00000001526 -2710.00000000198 -2569.99999999801 -2459.99999997665 -1179.99999999617 -1259.99999998282 80.0000000113118 79.9999999815941 -90.0000000060709 -59.9999999907516 530.000000007236 519.999999989575 249.99999999273 209.999999995686 169.999999993827 -9.99999999793658 -99.999999996993 -170.000000002075 -180.000000004161 -430.000000019907 -1520.00000003268 -2129.99999999903 -2520.00000000615 -2790.0000000052 -2859.99999999464 -2789.99999999675 -2730.00000000326 -2649.99999999787 -2629.99999999673 -2590.00000000214 -2549.99999999785 -2480 -2419.99999999568 -2420.00000000113 -2419.99999999453 -2329.99999999234 -2219.9999999945 -2160 -2120 -2089.99999999667 -2060 -1980.00000000113 -1930.00000000335 -1960 -1899.99999999554 -1760 -1639.99999999326 -1529.99999999775 -1509.99999999775 -1469.99999999661 -1069.99999998756 -640 -570.000000003405 -750.000000012528 -609.999999992013 -569.999999989734 -610.000000003428 -799.999999993133 -889.999999998914 -1250.00000001733 -1450.00000000809 -2610.00000030294 -3619.99999999534 -3349.99999999073 -3350.00000000348 -3230.00000000574 -3130.0000000082 -3349.99999999651 -3340.00000001286 -3550.0000000035 -3559.99999998822 -3549.9999999926 -3589.9999999717 -3489.99999999534 -3799.99999997541 -3620.00000000481 -3629.99999998824 -3369.99999997515 -4000.00000000485 -3700.00000000746 -3409.99999996529 -3140.00000005484 -3679.99999999887 -3260.00000002943 -3849.99999998658 -3990.00000001951 -4180.00000000381 -4270.00000005071 -4250.00000002799 -4070.00000002849 -4390.0000000009 -3979.99999999595 -4320.00000001664 -4530.00000001318 -4839.99999999271 -4479.99999995688 -4329.99999996662 -4630.00000006002 -4799.99999999379 -4639.99999999265 -4610.00000000255 -3999.99999996142 -3260.00000000852 -3920.00000003245 -4239.99999998632 -4320.00000000968 -3930.00000000662 -4079.99999999708 -3760.00000002122 -3729.99999999446 -3540.00000003059 -4560 -3799.99999997793 -4150.00000002217 -4669.99999999245 -4529.99999996349 -4759.99999999849 -4800.00000001588 -4950.00000000265 -4960.00000001063 -4979.99999999354 -5090.00000000687 -5190.00000001029 -5119.99999999887 -5140 -5179.99999999349 -5149.9999999973 -5000 -4539.99999999458 -4110.00000003755 -5000 -4829.99999999974 -4230.00000002309 -4830.00000001952 -3650.00000004357 -3059.99999995732 -1649.99999996631 -1109.99999996951 -589.999999976117 -439.999999998869 -249.99999998046 -179.999999992173 -139.999999998869 -110.000000003925 -9.99999999833164 -7.87281351222191e-09 30.0000000016797 50.0000000039478 40.0000000056445 -20.0000000067871 9.99999999603517 -7.94102561485488e-09 40.0000000079524 50.0000000028507 49.9999999960124 49.9999999971379 59.9999999931333 29.9999999959954 40 80.0000000069008 99.9999999930878 139.999999991945
10.0000000028535 80 -129.999999994895 -100.000000010363 -50.0000000052694 -170.000000004167 -450.000000021313 -1100.00000001526 -1820.00000000933 -1910.00000000402 -2720.00000001407 -2980.00000000246 -2829.99999999461 -2820.0000000036 -2899.99999999888 -2920 -2929.99999999594 -2920.00000000365 -2890.00000000183 -2930.00000000296 -2950.00000000296 -3120.0000000037 -2909.9999999885 -3080.00000000744 -2979.99999999888 -3129.99999999739 -2139.99999997189 -949.999999913274 140.000000007134 280 290.000000003018 400.000000006048 299.999999990121 290.000000006867 830.000000050579 209.999999985391 -710.00000000457 -2110.00000003192 -2610.00000001196 -2660.00000000502 -2600 -2509.99999998123 -2570.00000002947 -2980.00000000618 -2560.00000000112 -2520.00000000794 -2760.00000000398 -2380.0000000056 -2619.99999999376 -1109.99999986631 -409.999999970481 -430.000000001342 79.9999999867384 -50.0000000020293 10.0000000083446 429.999999963069 19.9999999947875 -90.0000000031719 -129.999999996822 -110.000000003183 -169.999999996811 -200 -209.9999999968 -270.000000002086 -640.000000025398 -1259.99999997119 -2590.00000002649 -2700.00000001068 -2900.00000000535 -2869.99999999252 -2769.9999999925 -2720 -2650.00000000326 -2569.99999999786 -2550.00000000215 -2519.99999999457 -2460 -2409.99999999671 -2379.99999999888 -2330.00000000218 -2320 -2240 -2150.00000000331 -2089.9999999978 -2040 -2040 -1969.99999999666 -1970.00000000222 -1950.00000000223 -1849.99999998659 -1739.9999999944 -1589.99999999214 -1520 -1490.00000000338 -1429.99999999886 -1079.99999998303 -649.999999994367 -700.000000001199 -809.999999990905 -599.999999967014 -870.000000139289 -710.000000010266 -1020.0000000035 -1270.00000000806 -1510.00000000232 -1550.00000001033 -3750.00000000345 -3369.99999997673 -3220.00000000112 -3049.99999998355 -3040.00000000135 -3129.99999999876 -3079.99999999053 -3290.00000000013 -3549.9999999965 -3800.00000000589 -3890.00000000829 -3869.99999999057 -3960.00000000961 -4039.99999998959 -3880.0000000156 -3829.9999999905 -3770.00000000466 -4019.99999998692 -3969.9999999811 -3679.99999999664 -3650.00000000734 -3859.99999999776 -3040.00000001388 -3280.00000000381 -3900.00000002648 -4099.99999999953 -3900.00000000832 -3969.99999999639 -4499.99999999888 -4309.99999999414 -4309.99999998353 -4820.0000000039 -4789.99999999133 -4819.99999999608 -4689.99999999578 -4629.9999999587 -4649.99999998903 -4789.99999998901 -4759.9999999949 -4619.99999998866 -4469.99999999568 -4029.99999995497 -4300.00000002796 -4540.00000000628 -4319.99999997778 -4350.00000000035 -4169.999999974 -4100.00000000704 -3919.99999997204 -4029.99999999776 -4510.00000000785 -4709.9999999873 -4899.99999999742 -5049.99999999848 -5029.99999999848 -5010.00000001018 -5030.00000000265 -5149.99999999622 -5120 -5160 -5159.99999999241 -5170.00000000268 -5189.99999999731 -5190.00000000269 -5200 -5210.0000000027 -4979.99999997497 -3970.00000005975 -4930.00000002688 -4379.99999998491 -3479.99999997605 -3030.00000002837 -2309.99999997296 -2259.99999997801 -1909.99999998072 -1369.99999998508 -960.000000003359 -549.999999998349 -320 -280 -179.999999993304 -190.000000002794 -90.0000000095184 30.000000003925 49.9999999960693 -6.75299816066399e-09 59.9999999932356 80 -9.99999998925943 -40 -39.99999999431 20.0000000068212 50.0000000039762 39.999999993156 30.0000000028677 19.9999999931333 90.0000000017593 100.000000006889 139.99999999888 200 209.999999995978
-229.999999997152 -269.999999994765 -200 -130.000000002865 -260.000000000199 -169.999999996015 -740.000000018815 -1530.00000000998 -1750.00000000645 -1960.0000000245 -2430.0000000087 -2870.0000000029 -2910.00000000069 -2950.0000000007 -3040.00000000363 -3070.00000001131 -3120.00000000365 -3170.00000000072 -3099.999999993 -3140.00000000258 -3210.00000000443 -3230.00000000074 -3110.00000001151 -3170.00000000297 -3259.99999999293 -3029.99999996189 -2760.00000000376 -1759.99999997559 -349.999999979451 120.000000002217 160.000000001108 180.000000001108 200 220.000000015444 219.999999992292 -160.000000009379 -1270.00000003517 -2320.00000002665 -2729.99999998803 -2670.00000000196 -2560.00000000111 -2739.99999998992 -2640.00000000284 -2480.0000000163 -2470.00000000595 -2830.00000001836 -2699.99999998182 -2619.99999998467 -1709.99999996573 -1649.99999998259 -1159.99999996993 -429.999999997976 -29.9999999946453 -59.9999999988916 340.000000024085 69.9999999875513 -129.999999997948 -170.000000000949 -200 -200.000000009385 -280.000000003041 -280 -299.999999995828 -330.000000012676 -930.000000023311 -2150.00000004306 -2879.99999998402 -2960.00000000423 -2970.00000000212 -2820.00000000111 -2750.00000000213 -2719.99999999462 -2640 -2579.99999999459 -2530.00000000326 -2509.99999999673 -2459.99999999889 -2429.99999999127 -2400 -2349.99999999671 -2329.99999999781 -2250.0000000033 -2120.00000000111 -2069.9999999989 -2030.00000000221 -1980.00000000111 -1960 -1960 -1950.00000000223 -1879.99999999552 -1699.9999999944 -1569.99999999775 -1490.00000000226 -1509.99999999774 -1399.99999998871 -779.999999990905 -940.000000014785 -1160 -889.999999994236 -1200 -959.999999995396 -1009.99999998975 -1139.99999999889 -1410.00000000807 -1510.00000000232 -1389.99999999767 -3760.00000000111 -3199.9999999931 -3089.99999999876 -2779.99999998836 -2889.99999999402 -2990.00000001627 -3039.99999999304 -3309.99999999873 -3209.99999998663 -3000.00000001178 -3249.9999999917 -3900.00000000924 -4130.00000005461 -4289.99999999759 -4310.00000000836 -3889.99999999273 -3950.0000000084 -4170.00000000133 -4100 -3970.00000000734 -3609.99999998932 -3650.00000001181 -3750.00000001947 -3739.99999998851 -3980.0000000198 -3909.9999999925 -4290.00000000467 -4590.00000000415 -4560.00000000333 -4670.00000001753 -4929.99999999247 -3940.00000002464 -4370.00000007411 -4760.00000001676 -4479.99999996392 -4519.99999996704 -3849.99999998506 -4500.00000002306 -4420.00000000887 -4580.00000001689 -4259.99999997503 -3890.00000000368 -4060.00000003869 -4560.00000000333 -4880.00000001036 -4990.00000000668 -5029.99999999629 -5039.99999999146 -4809.99999997317 -4399.99999998842 -4439.99999999586 -4260.0000000025 -4860.00000001386 -4979.99999999583 -4960.0000000064 -5090.00000003249 -5169.99999999734 -5160 -5200 -5209.99999999622 -5220.00000000647 -5230.00000000379 -5309.99999998211 -5240 -5229.9999999973 -5230.00000000382 -5219.99999999889 -5069.9999999864 -4750.00000000947 -3639.99999996501 -2699.99999997041 -2379.99999998354 -2269.99999999503 -2049.9999999829 -1529.99999998068 -689.99999998175 -469.999999990578 -420 -339.999999993327 -240 -160 9.99999999609201 59.9999999921727 59.9999999988915 50.000000003925 90.0000000039307 80 40 9.99999999716067 0 -10.000000010769 0 1.10844666778576e-09 9.9999999960238 9.99999999601812 20.0000000068667 90.0000000039933 169.999999994893 160.000000006901 180.000000001108 199.999999998892
-270.000000006332 -369.999999996055 -399.999999998903 -409.999999999568 -459.999999999147 -760.00000000245 -1040.0000000093 -1430.00000000999 -1750.00000001002 -1910.00000000289 -2240.00000001517 -3080.0000000199 -3280 -3229.99999999599 -3310.00000000182 -3409.99999999818 -3410.00000000659 -3439.9999999989 -3389.99999999596 -3410.00000000185 -3400.00000000371 -3339.99999999519 -3250.00000000669 -3410.00000000077 -3519.9999999989 -3199.99999998542 -2879.99999997893 -2329.99999995575 -1469.99999998671 -419.999999998903 -159.999999993986 30.0000000052069 10.0000000002728 -189.999999993122 -260.000000000574 -460.000000004974 -1390.00000006845 -2370.00000000085 -2680.00000001111 -2490.00000000086 -2880 -2809.99999999693 -2790.00000000198 -2760 -2529.99999997949 -2580.00000000728 -2620.00000002549 -1710.00000000712 -1629.9999999914 -449.999999999824 -449.999999999073 -639.999999997806 -159.999999985596 -210.0000000113 -189.99999999057 -219.999999998903 -330.000000010289 -539.999999996709 -359.999999998903 -339.999999998903 -280 -280 -290.000000002092 -540.000000009487 -1010.00000003813 -2600.00000003518 -2950.00000000964 -3070.00000000322 -3019.99999999684 -2769.99999999251 -2709.99999999677 -2710.00000000324 -2640 -2560 -2559.9999999989 -2469.99999999893 -2440 -2389.99999999673 -2369.99999999672 -2339.9999999989 -2289.99999999781 -2200 -2120 -2050.00000000331 -2029.99999999669 -2000 -1960 -1940.00000000556 -1889.99999999776 -1819.99999999441 -1720 -1560 -1469.99999999664 -1440 -1209.99999998079 -1190.00000000903 -1249.99999999662 -1199.99999998755 -1020.00000000569 -1200.0000000046 -1389.9999999944 -1119.9999998972 -1439.9999999989 -1370.00000000232 -1520.00000000466 -2230.00000011529 -3659.99999997797 -3049.99999999875 -2989.99999999874 -2779.99999998507 -2960.00000000473 -2800.00000002557 -3139.99999999048 -3160.0000000176 -2700.00000000039 -3130.00000001308 -3350.0000000024 -3350.00000000131 -3639.99999999079 -3620.00000001406 -4250.00000001293 -3779.99999998432 -4049.99999998563 -4279.99999999781 -4259.9999999989 -3979.999999994 -3890.00000001668 -4000.00000000383 -4209.9999999882 -4150.00000001567 -4210.00000002066 -4460.00000002041 -4600.0000000011 -4630.0000000064 -4769.9999999942 -4900.0000000011 -4609.99999995368 -4350.00000004001 -4770.00000001087 -4909.99999998295 -4749.99999998539 -4849.99999998688 -4989.99999999306 -4849.99999999124 -4850.00000000366 -3919.99999995749 -3620.0000000356 -4480.00000000406 -4739.99999999451 -5080.00000000408 -5159.99999999781 -5199.9999999937 -5209.99999999218 -5099.99999998407 -4599.9999999832 -4499.99999999475 -4189.99999999211 -3720.0000000237 -3669.99999997953 -4429.99999997289 -4829.99999999095 -5200.00000000751 -5180.00000000642 -5209.99999999623 -5269.99999998978 -5340.00000002583 -5359.99999999561 -5419.99999999352 -5419.99999999241 -5409.99999999079 -5309.99999997555 -5200.00000000762 -5200 -4999.99999997381 -3669.9999999601 -2829.99999996658 -2469.99999999177 -2419.9999999989 -2159.99999998679 -1709.99999997187 -1049.99999998727 -310.000000004965 -489.999999997223 -389.999999997218 -219.999999993327 -69.9999999972061 -30.0000000060908 10.0000000117069 29.999999996092 69.9999999960863 90.0000000028223 80 80 109.999999997161 90.0000000017479 1.09707798401359e-09 -40 -19.9999999920817 -10.0000000028677 5.74686964682769e-09 20 130.000000001788 149.999999996012 180 190.000000003999 190.000000002908 160
-309.999999997164 -570.000000005269 -610.000000000676 -790.000000003132 -930.000000001774 -880.000000002473 -1300.00000001643 -1620.00000000466 -1910.00000000179 -1819.99999999424 -2220.00000002379 -3190.00000000361 -3420.00000000254 -3410.00000000654 -3399.99999999783 -3450.00000000183 -3630.00000000184 -3670.00000000293 -3670.00000000185 -3570.00000000185 -3449.99999999706 -3359.99999999627 -3420.00000000483 -3570.00000000938 -3559.99999998922 -3369.9999999765 -2660.00000000326 -1569.99999997802 -629.999999937745 -669.999999983936 -280 -149.999999995907 -320.000000006622 -429.999999990337 -599.999999993952 -960.000000009948 -1560.00000004422 -1990.0000000013 -2440.00000001068 -2709.99999999885 -2949.999999993 -2889.99999999694 -2890.00000000198 -2819.99999999891 -2659.99999998985 -2059.99999995021 -929.999999927269 -450.000000003098 -460 -480.000000004047 -710.000000007174 -1280.0000000274 -709.999999978115 -319.999999998914 -319.999999997829 -590.00000000486 -1000.00000000304 -999.999999988466 -539.99999998883 -229.99999999593 -329.999999996828 -219.999999990547 -280.000000005281 -550.000000003189 -1610.00000005285 -2730.0000000148 -2850.00000001918 -2939.99999999466 -2880 -2780.00000000109 -2740.00000000109 -2700 -2619.99999999461 -2529.99999999784 -2460.00000000109 -2440 -2400 -2360 -2360 -2280 -2289.9999999978 -2189.99999999671 -2089.9999999912 -2010.0000000033 -1989.99999999778 -2010.00000000331 -1960 -1949.99999999667 -1859.99999999891 -1829.99999999666 -1719.99999999332 -1579.99999999222 -1389.9999999932 -1069.99999999426 -1039.99999999436 -1280.00000000109 -1209.99999999771 -1059.99999999081 -1050.00000000799 -1290.00000001371 -1710.00000000123 -1720 -1499.99999999426 -2289.99999973363 -1479.99999999891 -1780.00000001771 -3010.000000002 -2979.99999999529 -2909.99999998603 -3010.00000000819 -2679.99999998685 -3120.0000000106 -3459.99999999674 -3530.0000000013 -3190.00000000936 -3180.00000000589 -3550.00000000831 -3279.99999999409 -3750.00000002236 -3699.99999999624 -3850.00000000946 -4070.00000000948 -4179.99999999783 -4390.00000000245 -4270.00000000245 -4129.9999999932 -3600.00000002523 -3840.00000006617 -4249.99999999861 -4299.9999999907 -4320.00000000326 -4580.00000001323 -4889.99999999641 -4790.00000002187 -4900 -4870.00000001366 -4779.99999999891 -4889.99999999639 -4809.9999999678 -4840.00000001341 -4849.99999998986 -4350.00000010433 -4969.99999999125 -4909.99999999852 -4749.99999999013 -3839.99999995016 -3780.00000001248 -4520.00000004051 -5110.00000000668 -5189.99999999849 -5239.99999998743 -5239.99999999262 -5139.99999997368 -5059.99999998844 -4289.99999996155 -4190.00000001715 -3869.99999995473 -2949.99999999005 -3020.00000002768 -3970.0000000153 -4439.99999996365 -4330.0000000945 -5179.99999999891 -5240.00000000643 -5369.99999999623 -5420.00000000109 -5409.99999999731 -5430.0000000027 -5440 -5429.99999999621 -5449.99999999729 -5270.00000000272 -5199.99999999455 -4089.99999996778 -3309.99999999061 -3019.99999999669 -2699.99999997693 -1919.99999999115 -1740.00000000986 -1329.99999997837 -520.000000008799 -389.99999999167 -309.999999998303 -179.999999993338 -70.0000000038796 -49.99999998943 30.0000000038909 40 70.0000000028166 109.999999997178 70.0000000039137 110.000000002834 150.000000007432 169.999999994984 169.999999992806 149.999999988174 9.99999999249951 0 -20.0000000068326 -9.99999999027693 49.9999999971152 99.999999994219 150.000000003982 200.000000002171 189.999999996007 160 169.999999997081
-829.999999996095 -949.999999999613 -1000.00000001168 -1190.00000000177 -1269.99999999822 -1430.00000000178 -1430.00000000286 -1560.00000001039 -1770.00000000394 -1910.00000002051 -3620.00000003107 -3979.99999999785 -3929.99999999132 -3909.99999999388 -3839.9999999957 -3789.99999999387 -3789.99999999969 -3760.0000000037 -3729.99999999707 -3639.99999999893 -3449.99999999226 -3329.99999999706 -3430.00000000188 -3680.00000000591 -3599.9999999919 -3119.99999999243 -2259.99999998753 -1770.00000004858 -1199.99999998102 -169.999999802469 -470.000000001921 539.999999945157 -440.00000000494 -570.000000000864 -559.999999998926 -480.000000003899 -1230.00000002512 -2040.00000001606 -2330.00000001127 -2700.0000000208 -3030.00000000305 -3070.00000000198 -2960.00000000505 -2649.99999998158 -1699.99999997277 -1129.99999999878 -240.000000020395 -229.999999996908 -380.000000008095 -800 -1320.000000003 -1419.99999999678 -1410.00000000701 -1410.00000000274 -1469.99999998917 -1569.99999999239 -1589.99999999885 -1289.99999996966 -789.999999987313 -250.000000008407 -169.999999997908 -130.000000008441 -260.000000009487 -620.000000015876 -1950.00000005408 -2590.00000000427 -2940.00000000533 -2910.00000000428 -2849.99999999144 -2760 -2729.9999999957 -2690.00000000215 -2609.99999999784 -2509.99999999243 -2420 -2420 -2379.99999999456 -2349.99999999781 -2320 -2300.00000000547 -2270.00000000328 -2170.00000000329 -2040 -1979.99999999448 -1979.99999999447 -1970.00000000331 -1929.99999999776 -1860.00000000107 -1860 -1789.99999999774 -1679.9999999888 -1489.99999999988 -1059.99999998983 -990.000000006838 -1200.00000000457 -1209.99999998747 -1100.00000000459 -1130.00000000123 -1140.00000000569 -1540.00000001496 -1749.99999999876 -1589.9999999966 -1449.99999999193 -1539.99999998743 -1669.99999997686 -1569.99999999658 -1520.00000000834 -2969.99999999657 -2919.99999999893 -3050.00000000712 -3080.00000000952 -3250.00000000453 -3580.00000000371 -3830.00000000611 -3210.00000000348 -3460.00000002944 -3609.99999999651 -3479.99999999624 -3860.00000000592 -3699.99999999192 -3880.00000001734 -3670.00000002734 -4310.00000000841 -4319.99999998589 -4259.99999999401 -4479.99999999185 -4530.00000001772 -4419.99999999893 -4409.99999999926 -4620.00000001102 -4659.99999999785 -4779.99999999893 -4830.0000000025 -4900.00000000717 -4929.99999999534 -4939.99999999893 -4939.99999999892 -4999.99999999279 -5050.00000002284 -5160 -5100.00000000107 -5029.99999999745 -5079.99999999488 -5010.00000000364 -4860.00000001866 -4720.00000000108 -4860.00000000107 -5210.00000000366 -5010.00000000993 -5110.00000000368 -5210.00000000475 -5220.00000000522 -5039.99999998322 -4819.99999998843 -4009.9999999773 -4320.00000000107 -4640.00000002954 -5180.00000001058 -4779.99999998718 -4549.99999986532 -4609.99999997813 -5169.99999999626 -5230.00000001659 -5430.00000000375 -5440 -5429.99999999731 -5430.00000000377 -5400 -5440 -5419.99999999893 -5399.99999998912 -5229.99999999728 -5119.99999999785 -3459.99999993462 -2949.99999994681 -2469.99999995328 -1590.00000000383 -1439.99999999111 -989.999999987247 -579.999999988916 -300 -170.000000004931 -80.000000007725 -9.99999999720615 -29.9999999972005 30.0000000028052 80 69.9999999971834 80 110.000000002828 100.000000004593 270.000000001765 339.999999979707 360.000000001074 310.000000002856 289.999999981392 130.000000003942 99.9999999931788 -30.0000000039535 40 20.0000000068553 79.999999992059 90.0000000097799 150.000000002908 189.999999997087 210.000000002919 200
-1329.99999999152 -1309.99999999717 -1310.00000000177 -1390.00000000072 -1290.00000000178 -1320.00000000358 -1430.00000000644 -1640.00000000359 -1600.00000000827 -1830.00000002414 -3850.00000004146 -4030.00000000288 -4040 -3990.00000000289 -3929.99999999816 -3910.0000000029 -3909.99999999815 -3799.99999999629 -3749.99999999708 -3710.00000000293 -3509.99999999707 -3389.99999999706 -3349.99999999812 -3459.99999996343 -3379.99999996984 -2899.99999999408 -2339.99999998813 -1849.99999999108 -1599.99999995998 -1249.9999999106 -890.000000003388 -539.999999976421 -109.999999949102 -630.000000012909 -749.999999995924 -699.999999961614 -259.999999933323 -1520.00000000925 -2350.00000000774 -2690.00000000091 -2750.00000000227 -2449.99999999139 -1819.99999998697 -1710.00000000094 -1720.00000000909 -1889.99999999692 -579.999999997658 -729.99999999074 -820.000000008117 -1490.00000001124 -1639.99999999894 -1760.00000000303 -1970.00000000205 -2120.0000000166 -1949.99999999687 -2150.00000000101 -1949.99999999793 -1389.99999998331 -509.999999984414 -179.999999994753 -39.999999995805 0 -270.000000013733 -620.000000011647 -1500.0000000626 -2820.00000000425 -2990.00000000426 -2900 -2840 -2760 -2709.99999999678 -2649.99999999678 -2599.99999998921 -2479.99999999459 -2440 -2380.00000000106 -2339.99999999894 -2360.00000000106 -2320 -2289.99999999673 -2249.99999999779 -2159.9999999945 -2020 -1980 -1960 -1919.99999999446 -1870.00000000331 -1849.99999999775 -1840 -1779.99999999335 -1609.99999999213 -1339.99999999652 -1129.99999999666 -1250.00000000686 -1269.99999999206 -1149.99999999877 -919.999999995396 -1280 -1420.00000001032 -1770.00000000802 -1629.99999999661 -1570.00000000805 -1400.0000000068 -2209.99999994168 -1680.00000000106 -1520.00000000106 -2759.99999997535 -2689.99999999445 -2490.000000034 -2840.00000001858 -3219.9999999825 -3270.00000000079 -3700.0000000165 -3579.99999993598 -3320.00000000588 -3510.00000002491 -3599.9999999882 -3560 -4110.00000000729 -3869.99999997489 -4149.99999999862 -4030.00000003925 -4440.00000001087 -4469.99999998837 -4489.99999998836 -4579.99999999894 -4570.00000001238 -4660 -4759.99999998899 -4759.99999999501 -4820.00000000712 -4719.99999997997 -4840.00000000396 -4829.99999999749 -4910.00000000969 -4779.99999998245 -4930.00000001798 -4999.99999999894 -5089.99999999746 -5150.00000000361 -5120.00000000511 -5040 -5090.00000001195 -4980 -5020.00000000834 -4860.00000000517 -5090.00000000259 -4940.00000001876 -5129.99999999114 -5220.00000000734 -5200 -5220.00000000106 -4769.99999998476 -4499.99999999368 -3909.9999999499 -3860.00000010157 -4510.0000000249 -4720.00000001381 -4459.99999998405 -4680.00000004258 -5100 -5109.99999999626 -5080.00000000855 -5370.00000000269 -5400 -5440.00000000752 -5460.00000001941 -5469.99999999623 -5410.00000000378 -5440 -5409.99999998425 -5079.99999999014 -4539.99999997704 -2629.99999999602 -2209.99999997864 -1679.99999998686 -1409.99999999278 -859.99999998447 -459.99999998679 -280 -90.0000000038455 -20.000000001063 -40.000000001063 -19.9999999856129 29.9999999971948 50.0000000028109 80 140.000000006707 99.999999998937 150.000000000708 390.000000010644 430.000000001782 459.999999998937 450.000000003919 370.000000002862 310.000000003931 80 149.999999994995 169.999999994989 69.9999999960465 99.999999998937 140 99.9999999941849 59.9999999931106 90.0000000039819 130.0000000109 160.000000006924
-1749.99999999049 -1530.00000000177 -1560.00000000356 -1599.99999998655 -1519.9999999979 -1579.9999999922 -1539.99999999325 -1550.0000000018 -1450.0000000003 -1930.0000000148 -3880.00000000995 -4059.99999999895 -4059.99999999634 -4000.0000000084 -3960 -3949.99999999605 -3930.0000000029 -3799.99999999418 -3760 -3760 -3479.99999999415 -3400 -3360 -3359.99999999621 -3259.9999999962 -3059.99999999514 -2789.9999999894 -1899.99999995921 -1000.00000002937 -409.999999997021 -470.000000001933 -630.000000015672 -250.000000008987 -290.00000000195 -450.000000003007 -620.000000020378 -870.000000110316 -1259.99999992269 -1969.99999998145 -2180.00000000583 -2349.99999998855 -2230.0000000165 -1820 -1950.00000000201 -2210.00000001111 -1669.99999996481 -849.999999997976 -1010.00000000398 -1590.00000000309 -1790.00000000507 -1999.99999999685 -2109.99999999584 -2029.99999999689 -2370.00000000101 -2209.99999999681 -2079.9999999917 -1689.99999998333 -539.999999967639 -209.999999993724 20.0000000094417 180.000000003155 199.999999989461 -220.000000006332 -530.000000008464 -1320.00000004458 -2690.00000001486 -2939.99999999895 -2890.00000000319 -2790.0000000032 -2729.99999999679 -2689.99999999784 -2629.99999999889 -2529.99999999783 -2469.99999999677 -2420 -2350.00000000324 -2380 -2319.9999999935 -2320 -2289.99999999674 -2240 -2120 -2009.99999999226 -1959.99999999553 -1919.99999999552 -1840 -1840 -1840 -1849.99999999774 -1760 -1599.99999998215 -1359.99999999544 -1239.99999999543 -959.999999985204 -1129.9999999977 -1069.99999999099 -1120.00000000672 -1270.00000000799 -1680.00000001602 -1739.99999998965 -1600.00000000571 -1569.99999997944 -2709.99999998466 -2790.0000000034 -2719.99999998743 -2539.99999999841 -2920.00000000683 -2909.99999998973 -2909.99999999077 -2899.99999999895 -2899.99999999417 -2849.99999998861 -3600.00000003018 -3220.00000001068 -3390.00000000241 -3790.00000000726 -3769.99999999167 -3949.99999999652 -4169.99999999374 -3820.00000000871 -4230.00000002728 -4430.00000001437 -4550.00000000843 -4520.00000000316 -4669.9999999845 -4470.00000000953 -4559.99999999399 -4700.0000000089 -4739.99999998793 -4760 -4790.00000001172 -4839.99999999895 -4800.00000000713 -4840 -4910.00000000463 -5000 -5000.00000000507 -5010.0000000036 -5079.9999999979 -5159.99999999279 -5070.00000000873 -5059.99999998868 -5000.0000000021 -4909.99999999637 -4849.99999999742 -4880.00000000623 -5000.00000003016 -4990.0000000026 -5160.00000000105 -5200.00000000105 -5200 -5109.99999998059 -4789.99999998896 -4499.99999998841 -4249.99999998367 -3709.99999996564 -3970.00000000581 -3579.99999995217 -3730.00000002068 -4090.000000041 -4310.00000003678 -4740.00000003942 -5120.00000000526 -5180 -5259.99999999895 -5270.00000000706 -5069.99999999519 -5220.00000000631 -5460 -5460 -5269.99999997878 -4860.00000000653 -3549.99999987621 -2139.99999997591 -1739.9999999966 -1449.99999997858 -819.999999993418 -479.999999988916 -209.999999992721 -159.999999995487 -19.9999999933721 -10.0000000027939 -9.99999999720046 20.000000006662 49.9999999961375 40 49.9999999961261 69.9999999950688 90.0000000028336 359.999999994321 509.99999999969 590.000000001799 539.999999998948 469.999999997138 429.999999996081 259.999999993202 299.999999991087 230.000000002885 210.000000011826 189.999999991311 149.999999996047 140.000000006867 130.000000003965 159.999999998948 140.000000001052 79.9999999941394 130.000000002936
-2099.99999999083 -1709.99999999154 -1759.99999999792 -1890.00000000641 -1909.99999999972 -2000.0000000036 -1789.99999999146 -1669.99999999973 -1900.00000000984 -2950.00000003716 -3810.00000000651 -4230.00000000079 -4119.99999999058 -4069.99999999712 -3979.99999999527 -3949.99999999815 -3909.9999999971 -3820 -3760 -3679.99999998458 -3480.00000000376 -3469.99999999707 -3440 -3389.9999999981 -3289.99999999221 -3119.99999999028 -2849.99999998347 -1629.99999996078 -699.999999980116 -780.000000008771 -529.999999996737 -399.999999952797 -589.999999986869 -569.999999956896 -620.000000004724 -1240.00000000868 -530.000000046015 -980.000000022902 -1510.00000002494 -2029.99999997341 -1979.99999998491 -2009.99999999976 -2020.00000000104 -2519.99999999181 -2230.00000000605 -2170.00000002353 -1730.00000001129 -1740.0000000071 -1930.00000000508 -2270.00000001745 -2429.9999999887 -2130.00000000206 -2140.00000000825 -2640 -2679.99999998235 -2300.00000001248 -1529.99999995413 -200.000000015672 10.0000000010573 490.000000021009 809.999999981134 209.999999986306 -100.000000010562 -510.000000002126 -1530.00000003405 -2850.00000000537 -2899.99999999571 -2819.99999999466 -2740 -2710.00000000112 -2659.99999999896 -2560 -2510.00000000322 -2459.99999999459 -2440 -2360 -2339.99999999456 -2289.99999999779 -2309.99999999779 -2269.99999999127 -2189.99999999778 -2099.9999999945 -2029.99999999777 -1910.00000000328 -1810.00000000329 -1800 -1800 -1820.00000000104 -1769.99999999773 -1639.99999999545 -1500.00000000312 -1410.00000000437 -1159.99999999438 -880.000000005633 -1120.00000000564 -1219.99999999792 -1169.99999999353 -1350.00000001623 -1750.00000000232 -1700 -1630.00000000234 -1690.00000000807 -2690.00000001955 -2860 -2840 -2889.99999999764 -2970.00000000341 -3040 -3060.00000000104 -3069.99999999865 -3049.99999999656 -3130.00000000929 -3190.00000000241 -3390.00000000345 -3620.00000000692 -3869.99999998476 -3860 -3809.99999999756 -4229.99999998467 -3940.00000001291 -4400.00000001293 -4529.99999999754 -4680.00000001194 -4669.99999998947 -4720.00000001302 -4549.9999999944 -4650.00000000249 -4779.99999999397 -4869.9999999975 -4799.99999999395 -4779.99999999896 -4730.00000000963 -4750.00000000252 -4949.99999998826 -4910.00000000968 -4960 -4900.00000000104 -4939.99999999386 -4959.99999999073 -5040.00000000616 -5120.00000000721 -4990.00000000876 -5010.00000000773 -4960.00000000309 -4840.00000000622 -5020.00000001142 -5010.00000000052 -5070.00000000469 -5189.99999999739 -5060.00000000732 -5089.99999999213 -4889.99999999841 -4589.99999999001 -4329.99999999632 -4339.9999999863 -3789.99999992767 -3089.99999994431 -2309.99999996862 -2440.00000003931 -3649.99999996954 -3969.99999998228 -3360.00000000486 -3539.99999999774 -3630.00000000686 -4550.00000003805 -4349.99999998728 -4309.99999996033 -4920.00000001272 -5140.0000000213 -5080.00000000416 -4169.99999999124 -3749.99999992935 -1800.0000000052 -1339.99999999657 -989.999999993801 -889.999999998275 -659.999999987875 -350.000000004857 -59.999999994435 -29.9999999972118 -110.000000003834 -109.99999999408 10.000000001765 10.0000000038511 49.9999999961432 40 49.9999999961318 60 250.000000007478 390.000000002845 520.000000005701 600.000000006753 539.999999994276 489.999999990357 450.000000000793 370.000000001839 379.99999999319 340 190.000000009729 129.999999997098 170.000000002908 200 209.999999996041 180.00000000104 130.00000000293 150.000000002936 120
-2459.99999999794 -2459.99999998058 -1940.00000000255 -2249.99999999718 -2209.99999999099 -1889.99999999663 -1769.99999999819 -1900 -2590.00000000704 -3770.00000000912 -4060.00000001876 -4149.99999999243 -4110.00000000287 -4079.9999999963 -3970.00000000185 -3950.00000000186 -3920 -3840 -3800 -3599.99999999042 -3520.00000000206 -3529.99999999708 -3479.99999999035 -3369.99999999326 -3219.99999999515 -3150.00000000397 -2579.99999998847 -1339.99999997379 -1009.99999999679 -969.999999997823 -1079.99999999303 -879.999999995072 -819.999999959869 -830.00000000569 -839.999999997942 -830.00000001844 -610.000000007992 -990.000000009334 -2069.99999994512 -2049.99999994435 -1919.99999999097 -2400.00000001111 -2339.99999995742 -2420 -2309.99999998789 -1659.99999999897 -1870.00000000713 -2090.00000000101 -2469.99999999999 -2749.99999999999 -2609.99999998457 -2409.99999999485 -2300.00000000517 -2820.00000000518 -3199.99999998859 -2599.99999997091 -1859.99999993134 -269.99999999165 120.000000011499 260.000000009362 410.000000000858 40.0000000041155 -330.00000001063 -980.00000001279 -2520.00000003214 -2949.99999999889 -2849.99999999252 -2819.99999999466 -2709.99999999784 -2679.99999999464 -2650.0000000032 -2549.99999999782 -2509.99999999139 -2429.99999999781 -2369.99999999781 -2349.9999999978 -2259.99999999456 -2270.00000000324 -2270.00000000325 -2229.99999999778 -2139.99999999554 -2059.99999999553 -2019.99999999552 -1869.99999999673 -1779.99999999447 -1769.99999999569 -1770.00000000782 -1760 -1649.99999999773 -1359.99999999544 -1150.0000000008 -1230.00000000435 -1069.99999998543 -1079.99999999334 -1090.00000000795 -1500.00000000566 -1579.9999999933 -1700.00000001239 -1729.99999999198 -1650.00000000598 -1629.99999999663 -1830.00000002994 -2670.00000003206 -2880 -2920.00000000473 -3010.00000000237 -3089.99999999762 -3020 -3130.00000000342 -3249.99999998596 -3170.00000000343 -3240.00000000103 -3260.00000000483 -3450.00000000726 -3649.99999999655 -3819.99999999411 -3819.99999999204 -3950.00000002994 -4209.99999999755 -4060.00000001677 -4489.99999999651 -4450.00000000452 -4679.99999999609 -4760.00000001299 -4689.99999998348 -4780.000000006 -4769.99999999046 -4689.99999999647 -4760.00000000103 -4850.00000000457 -4829.99999999543 -4750.00000000962 -4680.00000000608 -4700.00000000506 -4860 -5039.99999999794 -5019.99999999181 -4939.99999999283 -5050.00000000359 -4979.99999999897 -4969.99999999743 -5019.99999998969 -4910.00000000361 -4940 -4879.99999999897 -5029.9999999974 -5060 -4910.00000000467 -4959.99999999373 -4870.00000000365 -4749.9999999984 -4550.00000000045 -4599.99999999472 -4489.99999996472 -4299.99999998836 -3899.99999996519 -2619.99999999467 -1989.99999998563 -2070.00000001955 -2560.00000004781 -2360.00000000206 -2159.99999998741 -2089.99999999549 -2560.0000000193 -3460.00000000357 -2999.99999993617 -2709.99999994729 -3249.99999998206 -3700.00000004417 -4059.99999998461 -2189.99999997874 -1629.9999999969 -999.999999995157 -649.999999994807 -449.999999993761 -559.999999993429 -469.999999998252 -269.999999981972 -99.9999999857607 10.0000000038227 -59.999999987773 0 20.0000000056218 49.9999999961545 49.9999999961488 69.999999997172 200.000000007725 190.000000002839 260.000000007748 360.000000002058 450.000000010627 420.000000002058 430.000000010661 470.000000003902 510.000000010695 499.999999998971 449.999999995052 359.999999988415 240.000000003746 249.999999983405 200 230.000000010814 249.999999996046 259.999999991053 209.999999996035 139.999999994117 170.000000002947
-2700.00000000203 -2859.99999999695 -2929.99999999976 -2469.9999999823 -1809.99999998994 -1710.00000000283 -1780.00000000203 -2090.00000003906 -3290.00000004281 -4219.99999999329 -4180.00000000469 -4200.00000000572 -4120 -4080 -4049.99999999137 -3979.99999999424 -3910.00000000289 -3849.99999999711 -3850.0000000029 -3569.9999999971 -3489.99999999811 -3469.9999999981 -3440.00000000102 -3429.99999998842 -3069.99999998557 -2629.99999999322 -1819.99999997484 -1329.99999999725 -909.999999986431 -1150.0000000099 -1080.00000001373 -969.999999961511 -1209.99999999891 -1260.00000000685 -1309.99999999599 -1079.99999998406 -739.99999998301 -890.000000010965 -1839.99999999593 -2229.99999999095 -2209.99999999799 -2020.0000000111 -2230.00000001009 -2020.0000000466 -1670.00000000405 -1900 -2050.00000001122 -2520.0000000133 -2779.99999999898 -2949.99999999692 -2830.00000000105 -2909.99999998036 -2759.99999999797 -3350.00000000624 -3309.99999999069 -3009.99999998344 -2659.99999998042 -2089.99999994403 -869.999999969975 -439.999999998983 -399.99999999593 -540.000000012756 -1860.00000002921 -2920.00000002911 -3160.00000000102 -2899.99999999039 -2819.99999999467 -2739.99999999466 -2639.99999999567 -2620.00000000102 -2599.99999999463 -2520 -2459.99999999461 -2410.00000000321 -2320 -2269.99999999338 -2229.99999999779 -2220.00000000102 -2200 -2129.99999999879 -2080 -1990.00000000326 -1949.99999999775 -1879.9999999955 -1779.99999999447 -1770.00000000226 -1730.00000000329 -1599.99999999545 -1460.00000000102 -1169.99999999568 -1019.99999999593 -1179.99999999439 -789.999999969589 -1169.99999997414 -1230.00000000796 -1569.99999999768 -1550.00000000334 -1670.00000000233 -1589.99999999401 -1619.9999999943 -1609.99999999663 -2430.00000001177 -2670.00000000439 -2769.99999999662 -2970.00000000339 -3000.00000000102 -3050.00000000238 -3069.99999999965 -3149.99999999761 -3220.00000001266 -3010.00000000139 -3250.00000002096 -3460.00000000484 -3580 -3740.00000001379 -3849.99999999066 -3910.00000000529 -4130.00000002323 -4219.99999999306 -4310.00000000839 -4529.99999998956 -4609.99999999855 -4520.00000002286 -4720.00000001298 -4680.00000001503 -4769.99999998947 -4770.0000000025 -4679.99999999898 -4709.99999999749 -4679.999999997 -4740.00000000203 -4809.99999998937 -4829.9999999995 -4659.99999998883 -4890.00000000661 -4950.00000000765 -4930.00000000255 -4890.00000000358 -4940.00000000102 -4920.00000001334 -4909.99999999844 -4899.99999999695 -4940 -4960.00000000621 -5030.00000001085 -5019.99999999479 -5019.99999998955 -4830.00000000567 -4699.99999999679 -4559.99999998745 -4349.9999999921 -4450.00000002255 -4579.99999999369 -4489.99999999204 -4249.99999998468 -3709.99999995497 -2460.00000000839 -1850.00000000369 -1870.00000001008 -2160.00000000639 -2179.99999999127 -2510.00000003781 -2510.00000000372 -2609.99999999256 -2450.00000002069 -2280.00000000305 -2149.99999999626 -2089.9999999993 -2490.00000004372 -2339.99999998925 -1609.99999999135 -809.999999950549 -89.9999999927383 -40.0000000055309 -170.000000009331 -360 -350.0000000038 -259.999999994424 -129.999999996189 -9.99999999720046 9.99999999719478 20 160.000000005633 139.999999998982 49.999999997172 30.0000000018161 80.0000000077137 140.000000006707 180.000000014455 360.00000001346 340.000000007759 349.999999989362 280.000000007782 400 470.000000003902 560 469.999999991311 429.999999996081 249.999999989242 199.999999998983 290.000000002919 269.99999999504 339.999999993122 289.999999996046 239.999999998983 179.999999998983 159.999999998983
-2960.00000000358 -3000 -2339.99999997419 -2209.99999998895 -1650.00000000483 -1799.99999999435 -1850.00000000446 -2220.00000001963 -3390.0000000495 -4409.99999999449 -4219.9999999943 -4179.9999999963 -4139.99999999158 -4059.99999999628 -4069.99999999814 -3960 -3940 -3909.99999999711 -3749.99999998855 -3499.99999999621 -3489.99999999911 -3419.99999999619 -3240.00000000684 -2999.99999999919 -2329.9999999742 -1730.00000000477 -1209.99999998663 -1130.00000000093 -1019.99999999122 -1429.99999999906 -1329.99999999615 -1239.99999998924 -1330.00000001587 -1559.99999999799 -1329.99999999004 -1199.99999999899 -1059.99999999899 -1280.000000016 -2369.99999999599 -2250.00000000201 -2280.00000000805 -2080.00000003731 -2110.00000000808 -2219.99999999393 -2010.00000000917 -2060.00000000408 -2149.99999999494 -2750.00000002249 -2999.99999999387 -2989.99999998767 -2709.99999999279 -2830.00000000409 -3070.00000002275 -3439.99999999382 -3420 -3460 -3459.99999999479 -3519.99999998754 -3209.99999997292 -2599.99999995566 -2469.99999999878 -3350.00000000338 -3470.00000000013 -3389.99999999256 -3089.99999999785 -2909.99999999785 -2789.99999999784 -2700.00000000101 -2639.99999999465 -2580.00000000101 -2560 -2460.00000000101 -2410.0000000032 -2339.99999999459 -2290.00000000221 -2200 -2170.00000000322 -2160 -2149.99999999677 -2089.99999999777 -2029.99999999776 -1920.0000000065 -1920 -1880 -1800 -1749.99999999773 -1740.00000000555 -1569.99999999115 -1430.00000000329 -1379.99999999899 -1409.9999999967 -1299.9999999964 -970.000000017161 -1219.99999999537 -1320.00000001129 -1539.99999999434 -1540.00000000567 -1580.00000000568 -1510.00000000435 -1600.00000000101 -2160.00000007193 -2460.00000001717 -2620.00000001348 -2799.99999999325 -2910.00000000813 -3040.00000000476 -3019.99999999321 -3020.0000000078 -3180.0000000058 -3249.99999999278 -3329.99999997627 -3400.00000000101 -3510.00000001413 -3499.99999999045 -3820.00000000386 -3859.99999999799 -4079.9999999823 -4260.00000000491 -4400.00000000983 -4440 -4439.9999999861 -4620.00000001594 -4589.99999999551 -4600 -4579.999999986 -4709.99999999351 -4669.99999997744 -4709.99999998645 -4650.00000000855 -4470.00000000353 -4439.99999999595 -4630.00000002578 -4690.00000000354 -4830.00000001775 -4729.99999997712 -4710.00000000356 -4810.00000000357 -4900.00000001741 -4920.00000000615 -4899.99999998768 -4879.99999999899 -4900.00000000201 -4910.0000000036 -4959.99999999379 -4900.00000000723 -4809.99999998694 -4709.99999999839 -4410.0000000004 -4369.99999999513 -3930.00000001293 -3860.00000001584 -4259.99999999672 -4310.00000000037 -4160.00000000402 -3909.99999997503 -2849.99999998333 -2059.99999995318 -1609.99999998559 -1679.99999999563 -1679.99999999562 -1630.0000000037 -1950.00000002294 -1739.99999999559 -1589.99999999729 -1400.0000000149 -1369.99999999283 -1470.0000000023 -1800.00000000749 -1720.00000000156 -1310.00000002481 -879.99999998999 -529.999999979676 -199.999999984914 -260.000000006548 -279.999999994446 -249.999999990646 -290.000000002788 -200 -130.0000000028 -59.9999999933834 0 30.000000010462 180.000000001006 180 80 30.0000000105302 119.999999992298 119.999999993292 149.999999996137 200.000000007736 260.000000001006 230.000000004886 280.000000006764 320 340.000000001006 440.000000007805 449.999999990288 350.000000002908 250.000000002913 329.999999996075 390.000000002925 379.999999998994 379.999999998994 369.999999997058 269.999999996046 230.000000003959 240
-2979.99999999083 -2540.00000000559 -2420.00000000561 -2269.99999997707 -1600.00000000927 -1739.99999999071 -1710.00000001212 -1830.00000000748 -3420.00000008201 -4290.00000000751 -4240 -4210.00000000285 -4080 -4039.99999999528 -3989.99999999813 -3960 -3949.99999999712 -3869.99999999235 -3599.99999998665 -3410.0000000019 -3229.99999999909 -2999.99999999817 -2809.99999998361 -2440.00000000199 -2319.9999999903 -1509.99999998437 -1299.99999999801 -1009.99999997943 -1239.99999999511 -1299.9999999941 -1119.99999999216 -940.000000009902 -880.000000008885 -1210.00000000892 -1180.00000000298 -1179.99999999005 -1489.99999999403 -1600.000000009 -1829.99999999899 -1989.99999998293 -1840.00000001714 -2379.99999999496 -2220.00000000505 -2190.0000000071 -2260.00000000508 -2299.99999999292 -2369.99999998278 -2930.00000000106 -3089.99999999694 -2879.99999999686 -2800 -2900.00000001031 -3270.00000003627 -3500.00000000717 -3440 -3490.00000000409 -3610.00000000633 -3640 -3340.00000000424 -3490.00000000113 -3560.00000000426 -3560 -3459.99999999472 -3180.000000001 -3060 -2879.99999999801 -2779.99999999901 -2669.99999999783 -2560 -2510.00000000218 -2499.99999999463 -2419.99999999462 -2349.9999999978 -2300.000000001 -2199.99999999558 -2110.00000000222 -2169.99999999778 -2150.00000000322 -2129.99999999777 -2059.99999999453 -1989.99999999227 -1870.00000000325 -1910.00000000425 -1820 -1760 -1739.99999999446 -1559.99999998889 -1360.00000000099 -1289.9999999987 -1280.00000000658 -1379.99999999901 -1299.99999998977 -1150.00000002381 -1349.99999999768 -1500.00000000465 -1459.99999998303 -1359.99999999801 -1429.99999999198 -1460.00000000569 -1670.00000001276 -2310.00000000236 -2470.00000000435 -2660.00000001422 -2809.99999999287 -2909.99999999463 -2940.00000000199 -2999.999999999 -3040.0000000048 -3049.99999999378 -3170.00000002967 -3390.00000001123 -3540.000000001 -3670.00000000928 -3800.00000000099 -4010.0000000132 -4090.00000000734 -4210.00000000935 -4359.99999999309 -4439.99999999308 -4570.00000000346 -4460 -4580 -4699.99999999403 -4699.99999998605 -4590.00000000349 -4320.00000000199 -4780.000000001 -4450.00000000954 -4580 -4389.99999998637 -4109.99999996816 -4030.00000000353 -4350.00000001769 -4450.00000000242 -4550.00000000767 -4730.00000001579 -4819.99999999387 -4859.99999999801 -4889.99999999742 -4819.99999999384 -4810.00000000259 -4879.99999999481 -4800 -4800 -4689.99999999838 -4319.99999998853 -4189.99999999937 -3929.99999999112 -3729.99999997957 -3590.00000001619 -3649.99999998975 -3360.00000004707 -3590.00000000863 -3239.99999999666 -2669.99999996829 -2199.9999999903 -1619.99999997657 -1400.00000000736 -1410.00000001006 -1380.00000000099 -1530.0000000037 -1730.00000001752 -1609.99999997802 -1409.99999999085 -1119.99999999654 -1059.99999999553 -929.999999992784 -920.000000004974 -769.999999993744 -589.999999998241 -330.000000010269 -309.999999998229 -179.999999993463 -200 -149.999999998212 -150.000000003783 -209.999999997206 -189.999999996206 -169.999999997195 -110.000000010422 -10.0000000038114 10.0000000028223 110.000000009479 190.000000002834 109.999999990487 50.0000000038398 89.9999999981441 89.9999999971436 90.0000000028621 140.00000000673 149.999999997127 180.000000000995 210.000000002885 260 309.999999990317 360.000000006798 400 349.999999996092 330.000000002919 350.000000003919 360.000000013711 370.000000003931 419.999999999005 350.000000002947 289.999999997047 259.999999993088 240
-2949.99999997821 -2520.00000001281 -2480.00000000197 -1999.99999999272 -1829.99999999818 -1849.9999999962 -1890.00000000452 -2290.00000001823 -4039.99999998625 -4209.99999999717 -4170.00000000284 -4140 -4019.99999999902 -4009.99999999813 -3959.99999999526 -3909.99999999812 -3870.00000000287 -3749.99999999712 -3569.9999999981 -3429.99999999429 -3239.99999999705 -3049.9999999855 -2489.99999997198 -2369.99999999127 -2109.99999999912 -1200.00000003211 -1059.99999999607 -1280.00000000488 -1089.99999998435 -899.999999992156 -579.99999999115 -669.999999994071 -589.999999989126 -1330.00000002274 -980.000000027762 -1230.00000002287 -1670.00000002096 -1729.9999999871 -1939.99999997603 -2249.99999997495 -2369.99999999798 -2159.99999999397 -2060.00000000407 -2130.00000000204 -2269.999999995 -2359.99999999491 -2450.0000000297 -3129.99999999184 -3059.9999999939 -2989.99999999083 -2869.99999999694 -2840.00000000319 -3289.99999999791 -3310.00000000406 -3370.00000000926 -3470.00000000731 -3630.0000000031 -3569.99999998743 -3489.99999999787 -3650.00000000312 -3560.00000000098 -3460.00000000098 -3329.99999999355 -3160.00000000098 -3040.00000000432 -2879.99999999902 -2689.99999999684 -2610.00000000218 -2549.99999999683 -2480 -2400 -2349.9999999978 -2280 -2250.0000000086 -2210.00000000222 -2170.00000000321 -2159.99999999554 -2119.99999999553 -2100.00000000098 -2019.99999999551 -1879.9999999955 -1820.0000000055 -1840 -1729.99999999221 -1760 -1579.99999999187 -1359.99999999641 -1300 -1260.00000000197 -1280.00000001118 -1270.00000000526 -1350.00000000891 -1310.00000002944 -1239.99999998873 -1360.00000001326 -1610.00000000332 -1589.99999999667 -1500 -1640 -2230.00000000806 -2389.99999999764 -2629.9999999852 -2689.99999998615 -2799.99999999902 -2919.99999999902 -3019.99999999902 -3069.99999999084 -3010.0000000024 -3190.00000000044 -3329.99999999561 -3470.00000000826 -3630.00000000341 -3700.00000002244 -3839.99999999902 -3990.00000002106 -4169.99999999656 -4270.00000000934 -4420.00000000493 -4450.00000000345 -4550.00000000346 -4619.99999999504 -4560.00000001192 -4600.00000000597 -4450.00000000643 -4800.00000000197 -4340.00000000502 -4740.00000000393 -4629.99999999145 -4159.99999995998 -3889.9999999571 -3620.0000000131 -3540.00000001 -3740.00000001315 -4030.00000000138 -4330.00000001162 -4640.0000000071 -4880 -4890.00000000258 -4840 -4769.99999999643 -4810.00000000975 -4760 -4649.99999999218 -4500.00000000295 -4319.99999998036 -4079.99999999672 -3660.00000001543 -3549.99999999835 -3529.99999999306 -3409.99999996991 -2400.00000000825 -2820.00000003247 -2389.99999997071 -1979.99999998399 -1799.99999999029 -1619.99999999026 -1219.99999998388 -1060.00000001372 -1230.00000000466 -1300.00000000934 -1460.0000000064 -1500 -1349.99999999925 -859.99999998463 -610.000000000219 -540.00000000295 -419.999999990013 -289.999999997252 -189.999999992721 -169.999999996257 -180 -169.999999997229 -89.9999999906862 -130.000000004749 -100 -49.9999999962228 -120.000000007566 -130.000000002805 -129.999999996206 -30.0000000047834 40.0000000056445 120.000000006639 180 220 230.000000003828 120 129.999999997144 140 139.999999999017 219.999999999017 170.000000002879 229.999999996132 240 259.999999993224 259.999999999017 360.000000005815 409.999999997087 339.999999993179 359.999999999017 380 430.000000002936 470.000000003925 480 379.999999999017 329.999999997041 299.999999999017 240
-2639.99999996233 -2460 -1909.99999998727 -1800.00000000559 -1740.0000000056 -1820 -2480.00000002228 -3570.00000002394 -3980.00000000661 -4139.99999999903 -4049.99999999345 -3999.99999999627 -3960 -3920 -3889.99999999812 -3900.00000000097 -3909.99999999811 -3709.99999999713 -3499.99999999044 -3229.99999999809 -3229.99999999425 -2589.99999998076 -2500.00000000194 -1989.99999996328 -510.000000000006 -710.000000001944 -1099.9999999922 -969.999999999989 -790.000000003905 -689.999999988222 -409.999999999 -679.99999999236 -299.999999996032 -850.000000043451 -1790.0000000307 -2120.00000001481 -2309.99999998802 -2250.00000000201 -2289.999999992 -2270.00000000105 -2409.99999999894 -2250.00000000009 -2319.99999999806 -2309.99999999795 -2460 -2760.00000001623 -2940.00000000316 -3050.00000000207 -3160 -3179.99999999903 -3139.99999999388 -3259.99999999903 -3390.00000000307 -3329.99999999369 -3379.99999999806 -3529.99999999691 -3600.00000000424 -3600 -3549.99999999884 -3460 -3480 -3399.9999999957 -3160 -3069.99999999255 -2939.99999999036 -2829.99999999783 -2680 -2590.00000000218 -2529.99999999684 -2399.99999999561 -2320.00000000097 -2089.99999999877 -2099.99999999806 -2240.00000000443 -2169.99999999778 -2160 -2160 -2130.00000000224 -2029.99999999678 -1919.99999999453 -1799.99999999549 -1800 -1800.00000000648 -1699.99999999545 -1589.9999999886 -1419.99999999446 -1249.99999999216 -1089.99999999479 -1069.99999999575 -1040.00000000462 -1010.00000002203 -1359.99999999342 -1330.00000000135 -1049.99999999301 -1079.99999999338 -1580.00000001697 -1649.99999999668 -1599.99999999903 -2259.99999998196 -2499.99999999903 -2600.00000002091 -2680.00000001145 -2830.00000000812 -2940.00000000575 -3090.00000000239 -3019.99999999806 -3059.99999999422 -3069.99999999662 -3159.99999999806 -3429.9999999966 -3570.00000001798 -3830.0000000151 -4030.0000000005 -4079.99999999903 -4190.00000000245 -4340.00000000589 -4419.99999998626 -4559.99999999312 -4470.00000000345 -4449.9999999946 -4710.00000000249 -4509.99999998961 -4409.99999999153 -3910.00000000736 -4399.99999998494 -4309.99999998548 -4359.99999997692 -4799.99999998795 -4699.99999997196 -3659.99999993876 -3159.99999998885 -2959.99999998591 -3230.0000000208 -3560.00000001731 -3930.0000000392 -4650.00000000452 -4949.99999998225 -4689.99999999839 -4739.99999999903 -4660.00000001232 -4669.99999999123 -4529.99999999739 -4350.00000000261 -4470.00000000165 -4279.99999997707 -4450.00000001509 -4599.99999999181 -3819.99999996679 -3469.99999998429 -2499.99999995899 -1920.00000001646 -2070.00000001285 -1829.99999999394 -1490.00000000024 -1309.99999999099 -1099.9999999956 -1010.00000000366 -1080 -1109.9999999973 -1200.00000000736 -1350.00000001106 -1249.99999999825 -679.99999999007 -379.999999989075 -209.999999991789 -180.000000001944 -130.000000005664 -140 -50.0000000056758 -39.9999999934971 -60.000000001944 -69.9999999991672 -60.000000000972 -29.9999999972118 -20.000000000972 -9.99999999720046 -40 -40 -40 0 50.0000000038 140 149.99999999051 170.000000003817 200.000000007645 190.000000003828 160 190.000000009575 179.999999999028 200.000000000972 249.999999997115 230.000000004834 229.999999996132 269.999999997098 330.00000000388 369.999999997087 300.000000000972 320 340 400.000000007816 520.000000000972 449.999999990186 420.000000000972 369.999999997041 309.999999996064 270.000000010854 289.999999996052
-2379.99999999733 -1999.99999999101 -1760.00000000365 -1750.00000000279 -1650.00000000359 -1769.999999998 -2330.00000002782 -3830.0000000187 -4090.00000000281 -4229.9999999991 -4060.00000000096 -3930.00000000283 -3880.00000000567 -3909.99999999812 -3849.99999999715 -3870.00000000093 -3809.9999999981 -3579.99999999046 -3359.99999998948 -3280.00000000479 -2819.99999999616 -2569.99999999422 -2139.99999997297 -579.999999972897 -1009.99999997866 -650.00000003015 -770.00000001067 -860.000000000961 -639.999999997027 -549.999999993122 -560.000000003956 -669.999999968446 -710.00000001283 -1119.99999999867 -1270.00000002649 -2960.00000000593 -2410.00000000412 -2409.99999998415 -2360 -2510.00000000203 -2580.00000000503 -2560.00000000312 -2549.99999999699 -2549.99999999384 -2650.00000000014 -2939.99999999587 -3030.00000000303 -3080.00000000607 -3149.99999999888 -3210.00000000305 -3240 -3220.00000000612 -3260.00000000096 -3359.99999999482 -3489.99999998981 -3530.00000000212 -3530.00000000309 -3529.99999999457 -3449.99999999786 -3410.00000000214 -3389.99999999785 -3149.99999999785 -3099.99999999472 -3009.99999999254 -2890.00000000313 -2799.99999999468 -2669.9999999828 -2570.00000000315 -2420.00000000878 -2369.9999999978 -2279.99999999904 -2249.99999999779 -2209.99999999778 -2209.99999999778 -2160 -2140 -2109.99999999776 -2069.99999999775 -1949.99999999679 -1839.99999999549 -1770.00000000226 -1789.99999999677 -1800 -1749.99999999676 -1589.99999999675 -1529.99999999579 -1459.99999999712 -1359.99999997946 -1370.00000001442 -1460.00000001118 -1539.99999998784 -1469.99999999768 -1440.00000002551 -1480.00000000838 -1590.00000000138 -1759.99999999808 -1809.99999999102 -1950.00000003067 -2570.00000000613 -2710.00000000711 -2739.99999999429 -2859.99999998855 -3030.00000000716 -2950.00000000047 -3020 -3080.00000000673 -3099.99999999422 -3100.00000000579 -3300.00000001645 -3530.00000000243 -3780.00000001166 -3920.00000000488 -4089.99999999659 -4170.00000001813 -4319.99999999508 -4449.99999999069 -4480 -4550.00000000935 -4589.99999999848 -4569.99999999254 -4679.99999999598 -4559.99999997214 -4350.00000002157 -4229.99999999247 -4080.00000000407 -4130.00000000636 -4240.00000002092 -3989.99999989984 -4140.00000003691 -4470.00000002741 -3209.99999998629 -2840.0000000048 -3110.00000003554 -3510.00000003078 -4090.00000002473 -4280.00000000516 -4740.0000000048 -4560.00000001842 -4569.99999999836 -4509.99999999836 -4400.00000000192 -4450.00000000261 -4490.00000000358 -4510.00000000358 -4530.00000001507 -4540.00000000192 -4540.00000000624 -4450.00000000361 -3969.99999997663 -3089.99999993561 -1789.99999994032 -1500.00000000822 -1429.99999999829 -1249.99999997836 -1009.99999999731 -929.999999997308 -1040.00000000096 -1070.0000000027 -1110.00000000367 -1190.00000000367 -1089.99999998736 -629.999999991823 -279.999999983612 -90.0000000036977 -70.0000000101494 -40 -29.9999999972459 -50.0000000037204 -20.0000000064915 -20.0000000009607 0 -10.0000000027825 10.0000000027882 9.99999999624549 -10.0000000027995 -9.99999999623412 -9.99999999718909 10.0000000018559 30.0000000018616 70.000000002828 80.0000000066279 120 139.999999999039 160 230.000000003817 229.999999995217 240 230.000000002873 229.99999999616 220 189.999999996149 169.999999997104 210.000000002902 260 290.000000010661 240 269.999999996115 310.00000000293 369.999999997064 320 390.000000010763 400 400 370.000000002964 320 379.999999999039 379.999999993076
-1740.00000000554 -1820.00000000825 -1779.99999999905 -1779.99999999538 -1860.00000000558 -2259.9999999962 -2380.00000002875 -3809.99999999159 -4179.99999999438 -4069.99999999814 -3920 -3870.00000000002 -3860 -3810.00000000284 -3839.99999999716 -3820.00000000095 -3729.9999999981 -3360.00000000095 -3410.00000000765 -3279.99999998947 -2799.99999998749 -2599.99999997979 -1739.99999995554 -730.000000016365 -599.999999979451 -579.999999971675 -549.999999998988 -600.000000001899 -479.999999996055 -429.999999997073 -1000.00000003666 -1499.99999998522 -1899.99999999886 -1310.00000002086 -1880.00000002007 -2440 -2420 -2470.00000000892 -2459.99999999905 -2459.99999999308 -2449.99999999796 -2459.99999999686 -2540 -2710.00000001029 -2970.00000000206 -2939.99999999491 -2980 -3060.00000000511 -3120.00000000512 -3200 -3189.9999999979 -3180 -3229.99999999789 -3420.00000000613 -3449.99999999788 -3449.99999999787 -3410.00000000308 -3409.99999999786 -3370.00000000309 -3320.00000000095 -3100.00000000285 -3090.00000000311 -3059.99999999567 -2939.99999999905 -2889.99999999687 -2769.99999999782 -2669.99999999781 -2499.99999999466 -2369.99999999685 -2269.99999999779 -2190.00000000948 -2219.99999999905 -2200 -2160 -2129.9999999933 -2100.00000000095 -2089.99999999775 -1960 -1859.99999999549 -1699.99999999905 -1730.00000000227 -1789.99999999773 -1669.99999999221 -1459.99999999086 -1429.99999999961 -1289.9999999996 -1029.99999999404 -1140.00000000095 -1080.00000000842 -1260.00000000095 -1350.00000001077 -1870.00000000233 -1819.99999999438 -1799.99999999342 -1710.00000000235 -1890.00000001651 -1789.99999999669 -2600 -2850.00000000142 -2890.00000000238 -3010.00000001286 -3050.00000000144 -3070.00000000239 -3019.99999999235 -3089.9999999976 -3010.00000000336 -3110.00000000242 -3200.00000000579 -3530.00000000243 -3709.99999999661 -3870.00000000922 -3980.00000000584 -4150.00000001907 -4329.99999999659 -4420.00000001081 -4490.00000001026 -4619.99999998135 -4560.00000000686 -4669.99999999159 -4610.00000000748 -4339.99999998311 -4700.00000002979 -4090.00000000631 -4219.99999999212 -4020.00000000979 -4180.00000002055 -4129.99999998544 -3810.00000000662 -2730.00000003334 -3410.00000001619 -2569.99999999839 -2460 -2200.00000000932 -3120.00000000475 -3460.00000004463 -4170.00000000923 -4260.00000001933 -4340.00000000095 -3999.9999999967 -3890.0000000064 -3860.00000002137 -3810.00000000641 -4210.00000001357 -3880.00000001095 -4339.99999999715 -4299.99999998279 -4500.00000000434 -4269.99999998618 -4510.00000001329 -4360.00000002225 -3759.99999994745 -1909.99999994374 -1210.00000001089 -1339.99999998546 -1119.99999999272 -1059.99999999905 -1080 -1080 -1089.99999999729 -869.99999998735 -609.999999984473 -120.000000006412 -70.0000000036863 -90.0000000046412 -70.0000000165898 0 -9.49285094975494e-10 0 19.9999999935085 29.9999999962739 20 9.99999999626254 29.9999999962569 60.0000000065483 70.0000000037545 120 120 150.000000002822 210.000000002828 199.999999993383 200 190.000000002845 130.0000000038 179.999999999051 170.000000002862 240.000000007634 240 259.999999999051 250.000000002885 269.99999999616 230.000000002896 240 260.000000005815 370.000000002913 339.999999999051 270.000000002925 329.99999999612 379.999999999051 409.999999996109 329.999999996103 400 470.000000002959 380.000000000949 340 400 410.000000003931 419.999999999051
-1799.99999999541 -1569.99999999451 -1760.00000001477 -1689.9999999991 -1699.99999999355 -2370.0000000056 -2970.00000003812 -4030.00000000464 -4160.00000000094 -4009.99999999813 -3839.99999999531 -3799.99999999624 -3800 -3790.00000000283 -3850.0000000019 -3819.99999999906 -3609.99999999045 -3259.99999999429 -3320.00000000384 -3209.9999999789 -2719.99999998465 -2569.99999999712 -1989.99999997781 -459.999999990325 -220.00000002612 109.999999995396 -129.999999975188 -280.000000055394 -410.000000013642 -530.000000004292 -799.999999978456 -759.999999997885 -1440.00000000188 -1279.99999998942 -1970.00000006129 -2359.99999999193 -2399.99999999906 -2419.99999999782 -2459.99999999499 -2519.99999999906 -2599.99999999684 -2659.99999999402 -2770.00000000711 -2910.000000003 -2960 -2970.00000000207 -3040.00000000416 -3070.00000000209 -3129.99999999603 -3159.99999999906 -3100.00000000094 -3150.00000000211 -3339.99999998544 -3400 -3389.99999999787 -3359.99999999574 -3270.00000000214 -3330.00000000924 -3289.99999999355 -3119.99999999138 -3009.99999999784 -2880.00000000527 -2820.00000000094 -2899.99999999565 -2880 -2739.99999999468 -2579.99999999467 -2399.99999999466 -2299.99999999559 -2200 -2179.99999999463 -2129.99999999778 -2120.00000000446 -2039.99999999625 -2009.99999999682 -2049.99999999775 -2000 -1849.99999999868 -1739.99999999454 -1700.00000000547 -1729.99999999773 -1649.99999999866 -1479.99999999731 -1329.99999999959 -1199.99999999175 -889.999999999574 -739.999999994446 -710.000000002314 -1050.00000001347 -1249.99999999486 -1200.00000001586 -1919.99999999439 -1820.00000000094 -1840 -1819.99999999436 -1680 -2500.00000001892 -2760.0000000038 -2820.00000000475 -2979.99999999906 -3050.00000000426 -3109.99999999667 -3080 -3149.99999999666 -3109.99999999665 -3100.0000000106 -3180.00000000578 -3340.00000000579 -3600.00000000487 -3690.0000000092 -3999.99999999906 -4030.00000000339 -4160.00000001265 -4310.00000000246 -4360 -4529.99999999471 -4560.0000000059 -4509.99999999066 -4439.99999999502 -4339.99999998126 -4540.00000001377 -4120.000000016 -3690.00000000942 -3909.99999999877 -4440.00000003689 -4239.99999998743 -4460.00000000039 -4259.99999995808 -3390.00000000296 -2450.00000004813 -2909.99999997226 -2529.99999999368 -2390.00000001567 -2880.00000001219 -3149.99999999506 -3810.0000000054 -3850.00000001297 -3829.99999997847 -3290.00000000062 -2830.00000000824 -3190.00000002583 -3570.00000003448 -3719.99999993221 -3840.00000003104 -4430.00000000264 -4539.99999999906 -4539.99999999282 -4319.99999995467 -4459.99999999812 -4540.00000001255 -4560.00000000535 -4509.99999994667 -3099.99999993545 -1849.99999999963 -1729.99999997713 -1280.00000000541 -1220 -1079.99999999551 -689.999999992778 -409.999999986372 -239.999999994537 -90.000000002737 -30.0000000036806 -20.0000000009379 40 70.0000000018218 90.0000000018275 69.999999995353 80.0000000055536 130.000000001845 89.9999999962739 110.000000009319 169.999999996263 139.999999999062 130.000000002811 159.999999998124 180 210.000000003766 320.000000006605 329.999999990544 269.999999996217 230.000000002851 200.000000013301 259.999999999062 250.000000002868 199.999999999062 240 269.999999996177 290.000000004766 289.999999997104 320 299.999999993247 270.000000009678 329.999999997081 380.000000006787 420.000000006798 460 470.000000002942 460.000000000938 389.999999997047 400 420.000000000938 349.999999990152 360 410.000000003919 380.000000006912 429.999999996069
