NCOLS 222
NROWS 28
XLLCORNER -178
YLLCORNER -65
CELLSIZE 0.5 
NODATA_value -9999 
-5150.00000000233 -5200 -5150.00000000239 -5200 -5200 -5149.99999999807 -5150.0000000025 -5200 -5150.00000000185 -5200 -5200 -5149.99999999736 -5200 -5150.0000000017 -5149.99999999832 -5200 -5150.00000000278 -5149.99999999841 -5200 -5149.99999999847 -5150.0000000029 -5200 -5150.00000000145 -5149.99999999702 -5149.99999999861 -5149.99999999696 -5149.99999999693 -5149.99999999869 -5150.00000000128 -5150.00000000316 -5149.99999999878 -5150.00000000119 -5200 -5149.99999999886 -5200 -5149.99999999667 -5150.00000000335 -5200 -5150.000000001 -5150.00000000097 -5150.00000000094 -5200 -5150.00000000088 -5150.00000000355 -5150.00000000358 -5149.99999999639 -5150.00000000364 -5100.00000000293 -5150.00000000071 -5149.99999999932 -5200 -5150.00000000378 -5150.0000000006 -5149.99999999943 -5150.00000000387 -5150.00000000389 -5149.99999999952 -5150.00000000395 -5150.00000000398 -5150.00000000401 -5149.99999999963 -5150.00000000406 -5150.00000000409 -5149.99999999588 -5149.99999999585 -5150.00000000418 -5149.9999999998 -5200 -5150.00000000426 -5149.99999999571 -5149.99999999568 -5149.99999999565 -5200 -5150.00000000441 -5149.99999999557 -5149.99999999994 -5200 -5200 -5150.00000000014 -5149.99999999983 -5150.0000000002 -5150.00000000463 -5149.99999999974 -5149.99999999972 -5149.99999999969 -5149.99999999966 -5200 -5149.9999999952 -5150.00000000043 -5200 -5149.99999999952 -5150.00000000492 -5150.00000000495 -5200 -5149.999999995 -5150.00000000503 -5149.99999999494 -5150.00000000509 -5149.99999999929 -5150.00000000515 -5200 -5149.9999999948 -5200 -5149.99999999915 -5149.99999999912 -5150.00000000532 -5150.00000000534 -5200 -5200 -5149.99999999898 -5150.00000000105 -5150.00000000549 -5149.99999999449 -5149.99999999886 -5149.99999999883 -5150.00000000119 -5200 -5099.99999999309 -5049.99999999432 -4450.00000002237 -3280.00000001928 -4300.00000000713 -4249.9999999942 -4400.00000001322 -4000.0000000073 -4049.99999999412 -4049.99999999849 -4200 -4199.99999998806 -4100.00000000441 -3949.99999999838 -4350.00000000605 -4449.99999999832 -4400 -4199.99999999119 -4299.99999999207 -4250.0000000062 -4450.00000000986 -4200.00000000369 -4600.00000000375 -4649.99999999369 -4450.00000000634 -4400 -4200 -4200 -4250.00000000205 -4149.99999999352 -4050.00000000651 -4000 -4049.99999999343 -4000 -3900 -3849.99999999335 -3849.99999999332 -3800 -3760.00000000539 -3759.99999999459 -3759.99999999457 -3680.00000000193 -3540.00000000929 -3460.00000000297 -3330.00000000226 -3289.99999999571 -3250.00000000242 -3239.99999999912 -2839.99999998596 -2529.9999999933 -2959.99999998397 -2980.00000004283 -3290.00000000055 -3350.00000000143 -3810.00000000496 -4100.00000000441 -4650.00000000284 -4850.00000000287 -4900 -4900 -4900 -4900.00000000441 -4900.00000000441 -3959.99999998356 -4450.00000000307 -4900.00000000441 -5000 -5050.00000000315 -5100 -5149.99999999679 -5150.00000000765 -5149.99999999233 -5149.9999999923 -5100 -5200 -5149.99999999662 -5149.99999999659 -5200 -5200 -5200 -5149.99999999648 -5150.00000000796 -5150.00000000358 -5150.00000000801 -5150.00000000364 -5149.99999999633 -5149.99999999631 -5150.00000000813 -5149.99999999184 -5149.99999999622 -5100 -5049.99999999616 -5050.00000000827 -5149.9999999917 -5149.99999999608 -5149.99999999605 -5150.00000000398 -5150.00000000841 -5200 -5149.99999999594 -5150.0000000085 -5149.99999999588 -5149.99999999585 -5150.00000000858 -5149.99999999139
-5149.9999999977 -5200 -5149.99999999801 -5149.99999999761 -5150.00000000242 -5200 -5150.00000000247 -5149.9999999975 -5150.00000000253 -5200 -5150.00000000259 -5150.00000000261 -5149.99999999829 -5149.99999999733 -5150.00000000165 -5150.00000000273 -5149.99999999724 -5150.00000000278 -5200 -5150.00000000284 -5149.99999999713 -5200 -5149.99999999858 -5200 -5149.99999999702 -5149.99999999699 -5149.99999999696 -5149.99999999693 -5149.9999999969 -5150.00000000313 -5200 -5149.99999999682 -5150.00000000114 -5150.00000000324 -5150.00000000327 -5200 -5200 -5149.999999999 -5149.99999999662 -5200 -5200 -5150.00000000088 -5149.9999999965 -5200 -5150.0000000008 -5150.00000000358 -5149.99999999639 -5150.00000000364 -5150.00000000367 -5149.99999999935 -5200 -5099.99999999565 -5100.00000000435 -5149.99999999946 -5150.00000000384 -5150.00000000048 -5150.00000000045 -5200 -5200 -5149.99999999602 -5200 -5150.00000000031 -5200 -5150.00000000026 -5200 -5149.9999999998 -5149.99999999983 -5200 -5150.00000000423 -5149.99999999574 -5149.99999999994 -5200 -5200 -5150.00000000003 -5200 -5150.00000000008 -5150.00000000011 -5150.00000000014 -5200 -5100 -5150.00000000023 -5149.9999999954 -5149.99999999537 -5200 -5149.99999999531 -5149.99999999528 -5149.99999999525 -5200 -5149.9999999952 -5150.00000000483 -5200 -5100 -5149.99999999508 -5200 -5200 -5149.999999995 -5200 -5149.99999999929 -5100 -5100.00000000588 -5150.00000000514 -5200 -5150.00000000085 -5149.99999999477 -5150.00000000526 -5200 -5150.00000000097 -5149.999999999 -5150.00000000537 -5149.9999999946 -5200 -5150.00000000546 -5150.00000000114 -5099.99999999565 -5100.00000000435 -5149.99999999443 -5049.9999999944 -5100 -3760.00000000105 -4249.99999999164 -4299.99999998857 -3950.00000000139 -4349.99999999423 -4349.99999998695 -4200 -4099.99999999264 -4150.00000000153 -4100.00000000435 -4049.99999999841 -4049.99999999838 -3950.00000000165 -4099.9999999923 -4200 -4249.99999999827 -3950.00000001046 -4200 -4200 -4200 -4049.99999999812 -4450.00000000244 -4600 -4449.99999999369 -4400 -4400 -4300 -4200 -4200 -4100 -4050.00000000216 -4049.99999999346 -4000 -4000 -4000 -4000 -3949.99999999332 -3849.99999999764 -3850.00000000239 -3719.99999999266 -3679.99999999457 -3490.00000000164 -3430.00000001146 -3379.99999999812 -3339.99999999724 -3129.99999999464 -3030.00000000296 -3180.00000000752 -3180.000000024 -3020.00000000219 -3020.00000003506 -3040.00000001654 -3380.00000000087 -3640 -4050.00000000284 -4600.00000001009 -4800 -4900.00000000435 -4899.99999998974 -4950.00000000733 -4800 -4799.99999999565 -4850.00000000307 -4949.99999999255 -5050.00000000313 -5100 -5150.00000000753 -5200 -5100.00000000435 -5150.00000000762 -5150.0000000033 -5149.99999999667 -5200 -5200 -5149.99999999659 -5150.00000000779 -5149.99999999218 -5150.0000000035 -5149.99999999213 -5100 -5149.99999999642 -5149.99999999204 -5149.99999999201 -5149.99999999198 -5200 -5100.00000000435 -5100 -5100 -5049.99999999619 -5049.99999999181 -5149.99999999179 -5150.00000000824 -5100 -5149.99999999605 -5150.00000000398 -5200 -5150.00000000404 -5149.99999999594 -5200 -5150.00000000412 -5150.00000000415 -5200 -5200 -5150.00000000858
-5149.99999999798 -5149.9999999977 -5200 -5200 -5150.0000000019 -5149.99999999812 -5150.00000000244 -5150.00000000182 -5200 -5200 -5150.00000000173 -5149.99999999741 -5200 -5150.00000000165 -5150.00000000267 -5149.9999999973 -5200 -5149.99999999724 -5150.00000000278 -5150.00000000281 -5150.00000000284 -5200 -5149.9999999971 -5200 -5149.99999999866 -5150.00000000298 -5100 -5200 -5149.99999999878 -5200 -5200 -5200 -5149.99999999682 -5149.99999999892 -5200 -5150.00000000327 -5149.9999999967 -5149.99999999903 -5149.99999999665 -5200 -5200 -5200 -5150.00000000082 -5149.9999999992 -5149.99999999923 -5149.99999999926 -5149.99999999929 -5200 -5149.99999999636 -5149.99999999633 -5200 -5150.00000000372 -5149.99999999625 -5150.00000000378 -5150.00000000381 -5150.00000000045 -5149.99999999613 -5099.9999999965 -5150.00000000392 -5100.00000000429 -5149.99999999602 -5200 -5100 -5150.00000000406 -5150.00000000409 -5150.00000000017 -5150.00000000014 -5150.00000000418 -5150.00000000009 -5150.00000000006 -5149.99999999997 -5149.99999999571 -5200 -5200 -5200 -5150.00000000011 -5200 -5150.00000000446 -5149.9999999998 -5150.00000000452 -5150.00000000026 -5200 -5200 -5200 -5149.99999999963 -5150.0000000004 -5150.00000000043 -5200 -5150.00000000477 -5149.99999999949 -5149.99999999517 -5150.00000000057 -5150.0000000006 -5100.00000000429 -5149.99999999935 -5150.00000000068 -5149.99999999929 -5150.00000000503 -5050.00000000506 -5050.00000000509 -5150.00000000082 -5149.99999999486 -5200 -5150.00000000091 -5200 -5200 -5149.99999999471 -5150.00000000532 -5149.99999999466 -5149.99999999892 -5200 -5200 -5150.00000000117 -5150.00000000549 -5150.00000000122 -5149.99999999446 -5099.99999999315 -5049.99999999869 -3680.00000000107 -3800 -4250.00000000568 -4000.00000000284 -4149.99999999855 -4200 -4300.00000000429 -4250.00000000154 -4250.00000000156 -4049.99999999412 -4049.99999999409 -3800 -3949.99999999403 -4000 -3950.00000000173 -4049.99999999824 -4049.99999999821 -4050.00000000611 -3899.99999999571 -4049.99999999008 -4100.00000000429 -4200 -4200 -4350.00000000628 -4400 -4400 -4400 -4299.9999999915 -4200 -4250.00000000216 -4200 -4200 -4149.99999999346 -4150.00000000657 -4200 -4200 -4049.99999998434 -4000 -4000 -3900 -3849.99999999753 -3720.00000000744 -3480.00000000632 -3589.99999999744 -3540.00000000429 -3219.99999999638 -3029.99999999498 -2939.99999999721 -2870.00000000464 -2980.00000000538 -2959.99999999216 -3090.00000002689 -3379.99999999914 -3720.00000000798 -4200.00000000574 -4400 -4700 -4900 -4949.99999999702 -4950.00000000301 -5000 -5000 -5000 -5100 -5150.00000000316 -5099.99999999571 -5149.9999999925 -5149.99999999676 -5149.99999999244 -5200 -5200 -5150.00000000765 -5149.99999999662 -5150.0000000077 -5150.00000000773 -5150.00000000347 -5149.9999999965 -5149.99999999648 -5149.99999999216 -5149.99999999642 -5149.99999999639 -5150.00000000793 -5150.00000000796 -5149.99999999631 -5150.00000000372 -5100 -5150.00000000807 -5099.99999998809 -5100 -5149.99999999184 -5200 -5150.00000000821 -5150.00000000824 -5150.00000000827 -5149.99999999599 -5200 -5100 -5149.99999999591 -5150.00000000841 -5150.00000000844 -5100 -5200 -5149.99999999147 -5150.00000000856
-5200 -5149.99999999804 -5100 -5149.99999999767 -5149.99999999764 -5149.99999999815 -5150.00000000242 -5149.99999999756 -5149.99999999824 -5200 -5150.0000000017 -5200 -5100 -5200 -5200 -5200 -5200 -5100 -5150.00000000276 -5200 -5149.99999999858 -5149.99999999716 -5200 -5150.00000000134 -5150.00000000293 -5150.00000000295 -5200 -5149.99999999699 -5149.99999999881 -5150.00000000117 -5150.00000000114 -5200 -5200 -5200 -5150.00000000321 -5200 -5150.00000000327 -5149.99999999906 -5200 -5149.99999999665 -5200 -5150.00000000341 -5200 -5150.00000000077 -5150.0000000035 -5149.99999999647 -5149.99999999932 -5149.99999999935 -5200 -5150.00000000364 -5200 -5149.99999999946 -5149.99999999949 -5149.99999999625 -5200 -5149.99999999619 -5149.9999999996 -5149.99999999963 -5150.00000000389 -5149.99999999969 -5150.00000000028 -5200 -5150.00000000023 -5200 -5200 -5150.00000000409 -5099.99999999599 -5100 -5149.99999999582 -5150.00000000003 -5149.99999999576 -5200 -5150.00000000429 -5149.99999999568 -5200 -5149.99999999986 -5150.00000000441 -5150.0000000002 -5150.00000000446 -5200 -5100 -5149.99999999969 -5150.00000000458 -5149.99999999963 -5100 -5150.00000000466 -5200 -5150.00000000472 -5200 -5149.99999999523 -5200 -5150.00000000483 -5149.99999999937 -5149.99999999935 -5100 -5100 -5050.00000000074 -5049.99999999923 -5000 -5150.00000000506 -5150.00000000509 -5200 -5149.99999999485 -5200 -5150.0000000052 -5150.00000000099 -5149.99999999474 -5149.99999999895 -5150.00000000532 -5149.99999999466 -5150.00000000114 -5149.99999999883 -5200 -5100.00000000423 -5100 -5100 -5100 -4349.99999998218 -4299.99999999304 -3950.00000000139 -4100.00000001131 -3519.99999999229 -3999.99999998857 -4149.99999999849 -4149.99999999846 -4100 -4200 -4050.00000000162 -4200 -4000 -4000 -3949.99999999827 -3950.000000006 -4099.99999999218 -4000 -4200 -3579.99999999814 -4099.99999999577 -4049.99999999383 -4099.99999999576 -4250.00000000622 -4299.99999999577 -4200 -4400 -4450.00000000634 -4400 -4350.00000000216 -4400 -4400 -4450.00000000224 -4400 -4299.99999999576 -4250.00000000656 -4200 -4200 -4150.00000000665 -4200 -4049.99999999329 -3949.99999999326 -3849.99999999324 -3679.99999999457 -3429.99999999017 -3529.99999998917 -3359.9999999981 -3259.99999999808 -3279.99999999661 -3180.00000000412 -3270.00000000199 -3079.99999999576 -2930.00000000337 -3470.000000032 -4100.00000000998 -4450.00000001293 -4800.00000000586 -4949.99999999281 -5000 -5049.99999999275 -5049.99999999696 -5100 -5099.99999998957 -5049.99999999264 -5100 -5100.00000000423 -5100.00000001066 -5200 -5100 -5149.9999999967 -5200 -5150.00000000759 -5150.00000000762 -5100 -5149.99999999656 -5149.99999999653 -5200 -5150.00000000352 -5200 -5150.00000000358 -5150.00000000361 -5149.99999999636 -5149.9999999921 -5150.00000000793 -5100 -5150.00000000799 -5150.00000000378 -5200 -5149.99999999193 -5200 -5150.00000000813 -5150.00000000816 -5150.00000000818 -5149.99999999179 -5149.99999999599 -5149.99999999173 -5149.99999999594 -5200 -5150.00000000412 -5149.99999999585 -5200 -5150.00000000844 -5200 -5150.0000000085 -5150.00000000429
-5200 -5150.00000000225 -5149.9999999981 -5150.00000000188 -5200 -5150.00000000182 -5200 -5200 -5149.99999999756 -5150.0000000017 -5149.99999999832 -5150.00000000165 -5149.99999999744 -5150.00000000259 -5150.00000000261 -5150.00000000154 -5200 -5200 -5150.00000000273 -5150.00000000142 -5200 -5150.00000000136 -5150.00000000284 -5200 -5200 -5200 -5150.00000000122 -5150.00000000298 -5200 -5149.99999999696 -5149.99999999693 -5150.0000000031 -5150.00000000313 -5149.99999999898 -5200 -5150.00000000321 -5200 -5150.00000000327 -5150.00000000088 -5150.00000000085 -5200 -5150.00000000338 -5149.99999999659 -5149.99999999926 -5100 -5100 -5200 -5150.00000000063 -5149.9999999994 -5149.99999999639 -5200 -5200 -5149.99999999631 -5200 -5149.99999999957 -5200 -5149.99999999963 -5200 -5150.00000000031 -5149.99999999611 -5200 -5100 -5149.99999999602 -5149.99999999599 -5200 -5200 -5149.99999999591 -5200 -5150.00000000003 -5149.99999999582 -5050.00000000003 -5150.00000000006 -5150.00000000009 -5150.00000000011 -5200 -5149.99999999983 -5150.00000000438 -5200 -5100 -5150.00000000446 -5149.99999999551 -5150.00000000034 -5150.00000000037 -5149.99999999542 -5200 -5150.00000000046 -5200 -5149.99999999949 -5149.99999999528 -5100 -5149.9999999994 -5149.9999999952 -5150.00000000483 -5150.00000000068 -5200 -5150.00000000492 -5200 -5149.9999999992 -5200 -5150.00000000085 -5150.00000000506 -5150.00000000509 -5100 -5149.99999999903 -5149.99999999483 -5149.9999999948 -5200 -5200 -5150.00000000529 -5149.99999999886 -5149.99999999466 -5200 -5100.00000000418 -5099.99999999332 -5150.00000000128 -5100.00000000418 -5050.00000000134 -3669.99999999446 -3770.00000001114 -3950.00000000142 -4050.00000000145 -4199.99999998573 -3850.00000000151 -4000 -4000 -4000 -4000 -4049.99999999835 -4000 -4000 -4000 -3819.99999999783 -3849.99999999403 -3759.9999999952 -3850.00000000603 -3900.00000000793 -4049.9999999981 -3800.00000001191 -4000 -4099.99999999184 -4250.0000000062 -4300 -4249.99999999792 -4400 -4400 -4450.00000000634 -4500 -4500.00000000418 -4400 -4400 -4449.99999999352 -4349.99999999767 -4249.99999999346 -4299.99999999105 -4300 -4200 -4200 -4200 -4050.00000000671 -3949.99999999326 -3900 -3899.99999999582 -3800 -3719.99999999666 -3529.99999998905 -3369.99999999753 -3200.0000000014 -3199.99999999916 -3039.99999999971 -3199.99999999211 -2970.00000000026 -4270.00000005669 -4950.00000000293 -5000 -5000 -5050.00000000301 -5100 -5150.00000000725 -5150.00000000728 -5100 -5150.00000000316 -5049.99999999264 -5149.99999999679 -5150.00000000742 -5100 -5150.0000000033 -5150.00000000333 -5200 -5200 -5150.00000000341 -5149.99999999238 -5150.00000000347 -5200 -5200 -5149.99999999227 -5150.00000000358 -5150.00000000361 -5200 -5150.00000000784 -5200 -5200 -5149.99999999207 -5200 -5150.00000000381 -5149.99999999616 -5100 -5200 -5150.00000000392 -5149.99999999605 -5150.00000000398 -5150.00000000819 -5200 -5200 -5150.00000000409 -5149.9999999917 -5200 -5150.00000000418 -5149.99999999579 -5150.00000000841 -5200 -5150.00000000429 -5200
-5149.99999999781 -5150.0000000019 -5150.00000000224 -5200 -5200 -5200 -5200 -5150.00000000173 -5149.99999999829 -5200 -5200 -5149.99999999838 -5200 -5150.00000000256 -5149.99999999741 -5150.00000000151 -5100 -5150.00000000267 -5150.0000000027 -5149.99999999727 -5150.00000000136 -5200 -5149.99999999719 -5150.00000000128 -5200 -5150.0000000029 -5200 -5149.99999999704 -5150.00000000114 -5200 -5149.99999999892 -5149.99999999693 -5200 -5149.99999999687 -5200 -5149.99999999906 -5150.00000000321 -5200 -5149.99999999915 -5149.99999999918 -5149.99999999667 -5200 -5149.99999999926 -5150.00000000341 -5100 -5149.99999999935 -5200 -5200 -5149.99999999943 -5149.99999999946 -5149.99999999949 -5200 -5149.99999999633 -5150.00000000369 -5150.00000000372 -5100 -5200 -5200 -5149.99999999616 -5200 -5200 -5149.99999999608 -5149.99999999983 -5149.99999999986 -5150.00000000401 -5100 -5200 -5150.00000000409 -5150 -5150.00000000003 -5200 -5149.99999999579 -5149.99999999989 -5200 -5150.00000000429 -5149.9999999998 -5149.99999999565 -5200 -5200 -5150.00000000443 -5150.00000000446 -5150.00000000449 -5149.9999999996 -5200 -5200 -5150.00000000048 -5150.00000000463 -5149.99999999534 -5100 -5149.99999999528 -5149.99999999937 -5150.00000000477 -5200 -5149.99999999929 -5100 -5149.99999999511 -5149.9999999992 -5149.99999999505 -5200 -5200 -5200 -5200 -5150.00000000509 -5200 -5150.00000000514 -5200 -5200 -5200 -5149.99999999474 -5150.00000000117 -5150.00000000119 -5149.99999999466 -5149.99999999875 -5049.99999999872 -5100 -5150.00000000134 -4749.99999999045 -4159.99999999287 -3640 -3800 -3900.00000000708 -4150.00000001276 -3680.00000000453 -3850.00000000568 -3949.99999999841 -3949.99999999426 -4000 -4000 -4049.99999999829 -3769.99999999415 -3800 -3760.00000000143 -3239.99999996271 -3819.99999998477 -3759.9999999952 -3800 -3999.99999999201 -3849.99999999804 -4000 -4100.00000000412 -4049.99999999383 -4099.99999999173 -4150.00000000622 -4250.00000000213 -4300 -4400 -4500 -4550.00000000224 -4449.9999999936 -4400 -4249.99999999355 -4349.99999999764 -4400 -4200 -4200 -4249.99999999753 -4250.0000000025 -4349.99999999335 -4200 -4200 -4200 -4000 -3800 -3800 -3640 -3640 -3219.99999999947 -3220 -3119.99999999886 -2969.99999999943 -2910.00000000189 -4849.99999999707 -5000 -5000 -5050.00000000713 -5000 -5100 -5099.99999998968 -5100 -5100 -5100.00000000412 -5050.00000000321 -5049.99999999264 -5100 -5100 -5100 -5200 -5149.99999999662 -5149.99999999247 -5150.00000000344 -5150.00000000759 -5149.99999999238 -5149.99999999647 -5200 -5149.99999999642 -5149.99999999227 -5200 -5149.99999999221 -5149.99999999218 -5150.00000000372 -5149.99999999213 -5200 -5149.99999999207 -5149.99999999204 -5150.00000000387 -5149.99999999198 -5200 -5150.00000000807 -5149.99999999602 -5200 -5149.99999999184 -5150.00000000818 -5150.00000000821 -5149.99999999588 -5150.00000000415 -5200 -5149.99999999167 -5100 -5149.99999999574 -5149.99999999571 -5149.99999999568 -5149.99999999153
-5149.99999999784 -5150.00000000219 -5149.99999999778 -5200 -5150.00000000179 -5149.9999999977 -5149.99999999827 -5149.9999999983 -5150.00000000168 -5149.99999999758 -5200 -5149.99999999841 -5150.00000000156 -5150.00000000154 -5149.99999999849 -5200 -5149.99999999739 -5150.00000000264 -5150.00000000139 -5149.9999999973 -5149.99999999866 -5200 -5150.00000000128 -5150.00000000281 -5150.00000000284 -5100 -5150.0000000029 -5150.00000000114 -5200 -5150.00000000298 -5200 -5149.99999999898 -5200 -5149.9999999969 -5150.00000000094 -5150.00000000316 -5149.99999999682 -5200 -5200 -5150.00000000327 -5200 -5150.00000000333 -5200 -5150.00000000338 -5150.00000000065 -5149.99999999938 -5149.99999999653 -5150.00000000057 -5149.99999999648 -5200 -5149.99999999952 -5149.99999999639 -5149.99999999957 -5149.99999999633 -5150.00000000037 -5200 -5150.00000000031 -5150.00000000378 -5150.00000000381 -5149.99999999977 -5149.9999999998 -5150.00000000389 -5150.00000000392 -5200 -5100 -5149.99999999994 -5150.00000000003 -5149.99999999594 -5149.99999999997 -5149.99999999994 -5149.99999999585 -5150.00000000418 -5149.99999999579 -5100 -5200 -5150.00000000429 -5149.99999999568 -5200 -5150.00000000438 -5149.99999999966 -5149.99999999557 -5150.00000000446 -5149.99999999957 -5149.99999999548 -5100 -5149.99999999949 -5200 -5150.00000000463 -5149.9999999994 -5200 -5149.99999999528 -5200 -5200 -5100 -5200 -5149.9999999992 -5100 -5200 -5200 -5150.00000000497 -5149.999999995 -5150.00000000097 -5150.000000001 -5200 -5200 -5150.00000000515 -5200 -5200 -5200 -5149.99999999474 -5150.00000000529 -5100.00000000406 -5099.99999999594 -5049.99999999463 -5200 -5200 -3760.00000000437 -3589.9999999963 -3680.00000000116 -3800 -3800 -4050.00000000153 -3550.00000000281 -3449.99999998141 -3800 -3800 -3800 -3850.0000000017 -4000 -3999.99999999594 -3900 -3849.99999999818 -4000 -3909.99999998149 -3900.00000000787 -3849.999999994 -3720 -3730.0000000109 -3950.00000000202 -3949.99999999389 -4049.99999999793 -4000 -4049.99999999787 -4100.00000000406 -4200 -4200 -4400 -4500.00000000406 -4400 -4450.00000000233 -4349.99999999358 -4300.00000000884 -4350.00000000648 -4299.99999999594 -4400 -4200 -4200 -4250.00000000662 -4200 -4099.99999999071 -3949.99999999736 -3850.00000000267 -3800 -3720 -3640 -3529.99999999863 -3349.99999999862 -3239.99999999529 -2900.00000000263 -2639.99999999837 -4800 -4850.00000000296 -4900.00000000406 -5000 -5050.0000000071 -5050.00000000307 -5100 -5050.00000000313 -5149.99999999685 -5150.00000000318 -5100 -5100 -5100 -5050.00000000736 -5099.99999998928 -5150.00000000335 -5099.99999999594 -5200 -5200 -5149.99999999653 -5200 -5200 -5149.99999999238 -5200 -5200 -5150.0000000077 -5200 -5149.99999999631 -5200 -5200 -5150.00000000378 -5149.99999999619 -5150.0000000079 -5100 -5200 -5149.99999999201 -5150.00000000801 -5149.99999999602 -5149.99999999599 -5150.00000000404 -5100 -5200 -5150.00000000819 -5149.99999999585 -5149.99999999582 -5100 -5100 -5200 -5150.00000000429 -5200 -5200 -5149.99999999156
-5149.99999999787 -5200 -5149.99999999781 -5200 -5150.00000000224 -5200 -5150.0000000017 -5150.00000000168 -5200 -5200 -5150.00000000159 -5149.99999999756 -5149.99999999846 -5200 -5149.99999999747 -5150.00000000145 -5200 -5149.99999999861 -5150.00000000264 -5149.99999999866 -5150.0000000027 -5200 -5149.99999999724 -5200 -5149.99999999881 -5149.99999999716 -5150.00000000114 -5200 -5149.99999999892 -5100 -5149.99999999898 -5149.999999999 -5149.99999999903 -5149.99999999906 -5149.9999999969 -5200 -5200 -5200 -5200 -5149.99999999923 -5200 -5149.99999999929 -5100 -5150.00000000065 -5150.00000000338 -5150.00000000341 -5149.99999999943 -5200 -5149.99999999949 -5149.99999999952 -5149.99999999645 -5149.99999999642 -5200 -5149.99999999636 -5150.00000000034 -5149.99999999969 -5149.99999999972 -5200 -5149.99999999977 -5150.0000000002 -5149.99999999616 -5200 -5150.00000000011 -5200 -5200 -5150.00000000398 -5149.99999999599 -5149.99999999997 -5149.99999999994 -5150.00000000409 -5149.99999999989 -5100 -5150.00000000418 -5150.0000000002 -5150.00000000023 -5200 -5200 -5149.99999999969 -5200 -5150.00000000037 -5149.9999999996 -5150.00000000443 -5200 -5200 -5149.99999999548 -5150.00000000054 -5150.00000000057 -5200 -5150.00000000062 -5150.00000000065 -5150.00000000068 -5150.00000000472 -5150.00000000475 -5150.00000000477 -5149.9999999992 -5149.99999999918 -5149.99999999915 -5200 -5200 -5150.00000000494 -5149.99999999503 -5150.00000000099 -5200 -5149.99999999895 -5149.99999999491 -5149.99999999488 -5149.99999999485 -5149.99999999483 -5150.0000000052 -5149.99999999477 -5100 -5100 -5049.99999999468 -5150.00000000134 -5100.00000000401 -3760.00000000432 -3539.99999998046 -3640 -3719.99999999443 -4000 -3900 -3900.00000000401 -3719.99999999425 -3679.9999999987 -3810.00000001419 -3849.99999999832 -3850.00000000571 -3800 -3800 -3900 -3949.99999999818 -3900.00000000401 -3800 -3720.00000000321 -3759.99999999845 -3800 -3589.99999999801 -3719.99999999357 -3760.00000000484 -3760.00000000166 -4000 -3809.99999998895 -3899.99999999599 -4000 -4049.99999999778 -4200 -4200 -4199.99999999599 -4400 -4500 -4450.00000000639 -4450.00000000642 -4350.00000000244 -4300.00000000401 -3910.00000000752 -3950.00000000148 -3529.99999999037 -3430.0000000075 -3640 -3720.00000000321 -3630.00000001202 -3589.9999999973 -3540.00000000401 -3520.0000000029 -3460.00000000895 -3299.99999999887 -3229.99999999749 -3039.9999999969 -3290.00000002145 -4600 -4749.99999999304 -4950.00000000298 -5000 -5000 -5100 -5099.9999999898 -5100 -5100 -5150.00000000719 -5099.99999998957 -5150.00000000725 -5150.00000000327 -5099.9999999894 -5150.00000000333 -5099.99999999599 -5100.00000000401 -5149.99999999258 -5150.00000000344 -5149.99999999653 -5150.0000000075 -5200 -5200 -5200 -5150.00000000762 -5200 -5150.00000000767 -5100 -5149.99999999628 -5150.00000000375 -5200 -5200 -5150.00000000384 -5149.99999999613 -5150.00000000389 -5149.99999999207 -5149.99999999204 -5200 -5149.99999999599 -5200 -5149.99999999594 -5149.99999999591 -5149.99999999187 -5150.00000000816 -5149.99999999181 -5150.00000000421 -5150.00000000423 -5150.00000000426 -5150.00000000429 -5200 -5200 -5150.00000000438 -5149.99999999559
-5149.99999999815 -5150.00000000213 -5200 -5149.99999999824 -5150.00000000222 -5200 -5200 -5149.9999999977 -5150.00000000162 -5200 -5150.00000000239 -5150.00000000154 -5200 -5150.00000000247 -5200 -5200 -5200 -5150.00000000136 -5200 -5200 -5149.99999999872 -5200 -5150.00000000122 -5100 -5149.99999999883 -5150.00000000114 -5150.00000000284 -5150.00000000108 -5150.00000000105 -5150.00000000102 -5200 -5150.00000000097 -5150.00000000094 -5150.00000000091 -5149.99999999912 -5149.9999999969 -5200 -5150.0000000008 -5149.99999999682 -5150.00000000321 -5150.00000000324 -5149.99999999932 -5150.00000000065 -5200 -5150.00000000335 -5149.99999999662 -5149.99999999946 -5200 -5149.99999999952 -5200 -5149.99999999648 -5100 -5149.99999999642 -5149.99999999966 -5200 -5150.00000000028 -5149.99999999974 -5150.00000000372 -5150.0000000002 -5150.00000000378 -5100 -5200 -5200 -5150.00000000006 -5150.00000000003 -5150.00000000395 -5149.99999999997 -5150.00000000006 -5150.00000000009 -5150.00000000406 -5200 -5149.99999999983 -5150.00000000415 -5150.00000000418 -5150.00000000421 -5200 -5150.00000000426 -5150.00000000429 -5200 -5149.9999999996 -5149.99999999562 -5200 -5200 -5149.99999999554 -5150.00000000449 -5149.99999999548 -5149.99999999545 -5149.99999999938 -5149.9999999954 -5200 -5149.99999999929 -5150.00000000469 -5149.99999999528 -5200 -5150.00000000082 -5149.99999999915 -5150.00000000483 -5149.99999999514 -5150.00000000094 -5200 -5200 -5200 -5149.999999995 -5200 -5150.00000000506 -5150.00000000114 -5200 -5100 -5200 -5150.0000000052 -5150.00000000523 -5150.00000000526 -5100 -5100.00000000395 -3410.00000000985 -3640 -3640 -3110.00000000404 -3300.00000002104 -3520.00000000842 -3640 -3800 -3900 -3340.00000000224 -3640 -3720.00000000589 -3800 -3720 -3720 -3800 -3800 -3640 -3640 -3580.00000000706 -3509.99999999408 -3240.00000001662 -3640 -3679.99999999836 -3679.99999999518 -3640 -3720 -3760.00000000489 -3849.99999999386 -3800 -3850.0000000062 -3900.00000000395 -3849.9999999977 -3849.99999999372 -3900.00000000395 -4300.00000000395 -4350.00000000637 -3509.99999998578 -3449.99999999911 -3229.99999999771 -3160 -2960.00000000679 -2950.00000000417 -2599.99999999998 -2780.00000000791 -2780.00000000079 -2899.99999999863 -3060.00000000049 -3130.00000000134 -3040.00000000237 -2970.00000000023 -3270.000000015 -3829.99999997055 -4749.99999999315 -4850.00000000688 -4949.99999999309 -5000 -5000 -5049.99999999301 -5049.99999999298 -5100.00000000395 -5100.00000000395 -5100.00000001026 -5149.99999999682 -5149.99999999284 -5150.00000000324 -5200 -5149.99999999275 -5149.99999999667 -5150.00000000335 -5149.99999999662 -5150.00000000341 -5150.00000000739 -5150.00000000347 -5149.9999999965 -5149.99999999253 -5149.99999999645 -5200 -5200 -5149.99999999241 -5149.99999999633 -5200 -5149.99999999628 -5149.9999999923 -5200 -5150.00000000776 -5149.99999999616 -5150.00000000387 -5150.00000000389 -5200 -5149.9999999921 -5150.00000000793 -5150.00000000796 -5149.99999999201 -5149.99999999594 -5200 -5200 -5200 -5149.99999999187 -5149.99999999184 -5150.00000000819 -5200 -5150.00000000824 -5149.99999999173 -5149.99999999565 -5200 -5200 -5200
-5150.00000000208 -5150.00000000179 -5149.99999999824 -5149.99999999827 -5200 -5200 -5150.00000000224 -5150.00000000227 -5200 -5150.00000000233 -5149.99999999764 -5200 -5150.00000000242 -5150.00000000145 -5200 -5150.0000000025 -5149.99999999864 -5200 -5150.00000000259 -5150.00000000261 -5149.99999999736 -5149.99999999878 -5200 -5200 -5149.99999999886 -5149.99999999721 -5150.00000000281 -5150.00000000284 -5200 -5149.999999999 -5150.00000000097 -5150.00000000295 -5149.99999999702 -5149.99999999699 -5200 -5149.99999999693 -5150.0000000031 -5149.99999999923 -5200 -5150.00000000318 -5149.99999999932 -5150.00000000065 -5149.99999999937 -5200 -5149.99999999667 -5149.99999999665 -5149.99999999949 -5200 -5150.00000000344 -5149.99999999957 -5149.9999999965 -5149.99999999963 -5200 -5149.99999999969 -5150.00000000028 -5149.99999999636 -5149.99999999633 -5150.00000000369 -5200 -5200 -5149.99999999622 -5149.99999999991 -5200 -5149.99999999613 -5150 -5150.00000000003 -5149.99999999605 -5149.99999999991 -5149.99999999989 -5150.00000000014 -5150.00000000017 -5150.00000000409 -5149.99999999977 -5149.99999999585 -5149.99999999582 -5200 -5150.00000000423 -5200 -5200 -5200 -5150.00000000435 -5149.99999999562 -5150.00000000441 -5149.99999999946 -5150.00000000446 -5149.99999999551 -5149.99999999548 -5149.99999999935 -5150.00000000068 -5149.9999999954 -5150.00000000463 -5150.00000000466 -5150.00000000469 -5149.99999999528 -5150.00000000475 -5150.00000000477 -5149.9999999952 -5149.99999999906 -5150.00000000486 -5150.00000000489 -5149.99999999508 -5149.99999999895 -5149.99999999503 -5150.000000005 -5149.99999999886 -5100 -5149.99999999491 -5099.99999999366 -5200 -5150.00000000517 -5100 -5100.00000000656 -5149.99999999474 -3179.99999999633 -3229.99999999972 -3140.00000000078 -2570.00000000712 -2430.00000001567 -3100.00000000094 -3390.0000000078 -3479.99999999809 -3640 -3950.00000000165 -3260.00000000848 -3419.99999999932 -3640 -3680.00000000141 -3760.00000000455 -3640 -3590.00000000574 -3579.99999999775 -3430.00000000116 -3370.00000000039 -3159.99999999766 -3130.00000000036 -3590.00000000591 -3380.00000001581 -3380.00000000317 -3640 -3719.99999999688 -3579.99999999274 -3430.00000000774 -3680.00000000489 -3640 -3520.00000000298 -3530.00000000513 -3589.99999999767 -3440.00000001 -3160.00000000407 -3210.00000000204 -3099.99999999922 -3019.99999999901 -3070.00000000873 -2980.00000000491 -3000.00000000438 -3010.0000000013 -2659.9999999974 -2579.99999999583 -2640 -2560.00000000156 -3229.99999999977 -3300 -3640 -3810.00000000818 -4399.99999998832 -4699.99999999036 -4850.0000000029 -4949.99999999707 -4950.00000000296 -5000 -5000 -5050.00000000304 -5099.99999998997 -5100 -5100 -5100.0000000102 -5099.99999999611 -5049.9999999929 -5099.99999998963 -5200 -5150.00000000719 -5150.00000000333 -5150.00000000335 -5149.99999999272 -5149.9999999927 -5200 -5150.00000000347 -5200 -5149.99999999258 -5200 -5149.99999999642 -5200 -5200 -5150.00000000367 -5200 -5150.00000000762 -5149.99999999235 -5200 -5149.9999999923 -5150.00000000773 -5149.99999999224 -5150.00000000389 -5150.00000000392 -5150.00000000395 -5100 -5150.00000000401 -5200 -5100 -5150.00000000799 -5150.00000000801 -5150.00000000415 -5149.99999999193 -5200 -5149.99999999576 -5200 -5200 -5200 -5150.00000000824 -5149.99999999562 -5150.0000000083 -5150.00000000833 -5150.00000000446
-5000 -5150.00000000176 -5150.0000000021 -5200 -5200 -5150.00000000165 -5200 -5200 -5149.99999999844 -5100 -5200 -5149.99999999852 -5100 -5150.00000000242 -5150.00000000244 -5150.00000000136 -5150.0000000025 -5150.00000000131 -5150.00000000256 -5149.99999999741 -5149.99999999739 -5149.99999999736 -5150.00000000267 -5149.9999999973 -5149.99999999727 -5150.00000000276 -5150.00000000278 -5150.00000000281 -5150.000000001 -5150.00000000287 -5200 -5150.00000000293 -5149.99999999704 -5150.00000000085 -5200 -5200 -5150.00000000307 -5149.99999999926 -5200 -5200 -5100 -5200 -5200 -5200 -5149.9999999967 -5200 -5200 -5149.99999999955 -5149.99999999957 -5200 -5150.00000000037 -5200 -5150.00000000352 -5200 -5150.00000000358 -5149.99999999977 -5149.9999999998 -5149.99999999633 -5200 -5100 -5149.99999999625 -5149.99999999622 -5149.99999999997 -5150 -5150.00000000387 -5150.00000000389 -5200 -5200 -5200 -5149.99999999599 -5149.9999999998 -5150.00000000406 -5149.99999999591 -5149.99999999588 -5150.00000000031 -5150.00000000034 -5150.00000000037 -5149.9999999996 -5149.99999999957 -5100 -5150.00000000432 -5149.99999999949 -5149.99999999946 -5149.9999999956 -5149.99999999557 -5150.00000000063 -5200 -5149.99999999932 -5200 -5150.00000000074 -5150.00000000077 -5149.99999999537 -5100 -5200 -5149.99999999528 -5150.00000000091 -5149.99999999523 -5150.00000000097 -5149.99999999517 -5150.00000000102 -5150.00000000489 -5200 -5200 -5200 -5149.99999999883 -5150.00000000119 -5200 -5200 -5150.00000000512 -5149.99999999486 -5099.99999999616 -5100 -3090.00000001339 -3139.99999999866 -3040.00000000135 -3059.99999999864 -1899.99999998373 -2920.00000002133 -3000.00000000091 -3460.00000000191 -3619.99999999758 -3720 -3810.00000000992 -3419.99999999761 -3429.99999999965 -3640 -3679.99999999857 -3520.0000000061 -3540 -3459.99999999314 -3410.00000000038 -3500.00000000691 -3300.00000000077 -3080.00000000082 -2949.99999999411 -3020.00000000082 -2900.00000000933 -2920.00000000468 -3020.00000001526 -3109.99999999237 -2830.0000000449 -3269.9999999979 -3170.00000000122 -3159.99999999483 -3160.00000000384 -3030.00000000123 -3059.99999999599 -2920.00000000077 -2819.9999999975 -2840.00000000405 -2880.00000000307 -2860.00000000254 -2719.99999999798 -2659.99999999028 -2620.00000000564 -2620.00000000774 -2639.99999999789 -2780.00000000641 -3270.00000000131 -3309.99999999978 -3509.99999999595 -3760.00000000223 -4250.00000000844 -4549.99999999716 -4800.00000000958 -4849.99999999326 -4900 -5000 -5000 -5050.00000000685 -5049.99999999696 -5000 -5050.0000000031 -5149.99999999687 -5100.00000001015 -5099.99999999616 -5049.99999999679 -5150.00000000324 -5150.0000000071 -5100 -5150.00000000333 -5100 -5150.00000000722 -5150.00000000725 -5200 -5149.9999999927 -5200 -5200 -5149.99999999645 -5149.99999999642 -5200 -5149.99999999253 -5149.99999999633 -5150.00000000753 -5200 -5150.00000000375 -5149.99999999622 -5149.99999999619 -5200 -5150.00000000387 -5149.99999999227 -5150.00000000392 -5149.99999999605 -5150.00000000398 -5150.00000000784 -5149.99999999596 -5149.9999999921 -5150.00000000409 -5150.00000000412 -5150.00000000799 -5150.00000000418 -5200 -5150.00000000807 -5149.9999999919 -5149.99999999187 -5200 -5149.99999999181 -5200 -5149.99999999176 -5150.00000000827 -5200 -5100
-2710.00000002021 -4700.00000000819 -5000 -5050.00000000168 -5100 -5150.00000000162 -5150.00000000159 -5000.00000000443 -5200 -5200 -5200 -5149.99999999767 -5149.99999999764 -5150.00000000139 -5149.99999999758 -5149.99999999866 -5149.99999999869 -5149.99999999872 -5149.99999999875 -5149.99999999744 -5149.99999999881 -5200 -5200 -5150.00000000111 -5150.0000000027 -5150.00000000105 -5149.99999999724 -5150.00000000278 -5149.99999999903 -5150.00000000094 -2210.00000003928 -5150.00000000088 -5150.00000000293 -5150.00000000082 -5200 -5150.00000000077 -5149.99999999926 -5149.99999999693 -5149.99999999932 -5200 -5149.99999999684 -5149.99999999682 -5149.99999999943 -5149.99999999676 -5200 -5150.0000000033 -5149.99999999667 -5150.00000000043 -5200 -5200 -5200 -5150.00000000347 -5149.99999999972 -5149.99999999974 -5200 -5200 -5200 -5149.99999999636 -5200 -5200 -5150.00000000006 -5200 -5149.99999999622 -5200 -5200 -5149.99999999613 -5150.00000000011 -5149.99999999986 -5149.99999999983 -5200 -5149.99999999599 -5149.99999999596 -5200 -5149.99999999969 -5149.99999999966 -5200 -5149.99999999582 -5149.99999999579 -5149.99999999576 -5150.00000000426 -5149.99999999949 -5200 -5149.99999999943 -5200 -5149.99999999937 -5150.00000000443 -5200 -5149.99999999551 -5200 -5200 -5200 -5200 -5150.00000000085 -5149.99999999534 -5200 -5150.00000000472 -5150.00000000475 -5149.999999999 -5149.9999999952 -5150.00000000105 -5200 -5200 -5149.99999999508 -5149.99999999505 -5150.00000000119 -5200 -5149.99999999497 -5150.00000000506 -5200 -5100 -5149.99999999864 -3219.99999999869 -2930.00000000577 -2840.00000000058 -2890.00000000197 -2339.99999999291 -1909.99999999525 -2920.00000000753 -3340.00000000748 -3310.00000000259 -3539.99999999292 -3470.00000000235 -3720.00000000575 -3590.00000000173 -3429.99999999532 -3259.99999999928 -3379.99999999927 -3380.00000000076 -3590.00000000566 -3410.00000000038 -3360 -3380.00000000151 -3309.99999999578 -3299.99999999672 -2939.99999999213 -2889.99999999958 -2870.0000000074 -2059.99999999735 -2659.99999999287 -2479.99999999574 -2820.00000000555 -2900.00000000392 -2939.99999999818 -2859.99999999908 -2800.0000000032 -2640.00000000302 -2790.00000000617 -1879.9999999855 -2580.00000000249 -2530.00000000201 -2600 -2459.99999999621 -2470.0000000038 -2669.99999997835 -2910.00000000157 -3259.99999999819 -3369.99999999978 -3499.99999999471 -3719.99999999698 -3860.00000000772 -4450.00000000278 -4650.00000000659 -4850.00000000284 -4849.99999999713 -4900 -4900 -5000 -5000 -5050.00000000301 -5050.00000000682 -5050.00000000307 -5050.0000000031 -5100.00000001003 -5100 -5100 -5050.00000000321 -5100 -5149.99999999673 -5149.99999999292 -5200 -5149.99999999287 -5149.99999999662 -5149.99999999659 -5149.99999999656 -5149.99999999653 -5150.0000000035 -5150.00000000352 -5150.00000000355 -5149.99999999642 -5149.99999999639 -5150.00000000742 -5149.99999999255 -5200 -5150.0000000075 -5200 -5100 -5150.00000000381 -5200 -5200 -5150.00000000767 -5200 -5149.99999999605 -5200 -5150.00000000779 -5150.00000000404 -5150.00000000406 -5200 -5149.99999999588 -5150.00000000415 -5200 -5200 -5149.99999999198 -5149.99999999574 -5150.00000000429 -5200 -5149.99999999565 -5200 -5150.00000000818 -5150.00000000821 -5150.00000000824 -5100 -5150.0000000083
-1180.00000000234 -1670.00000000587 -1670.00000000555 -1580.00000000521 -1630.00000000683 -1580.00000000521 -1390.00000000255 -1220.00000000162 -2800.00000002968 -5100.00000000077 -5200 -5200 -5149.99999999861 -5150.00000000236 -5100 -5149.99999999758 -5150.00000000128 -5200 -5150.00000000122 -5150.00000000253 -5200 -5200 -5149.99999999739 -5149.99999999736 -5150.00000000267 -5200 -5149.999999999 -5200 -5150.00000000094 -5150.00000000281 -5150.00000000284 -5149.99999999713 -5149.9999999971 -5149.99999999707 -5150.00000000077 -5149.99999999926 -5150.00000000071 -5150.00000000068 -5200 -5149.9999999969 -5200 -5100 -5149.99999999946 -5149.99999999949 -5100 -5200 -5150.00000000043 -5150.00000000333 -5150.00000000037 -5200 -5200 -5150.00000000344 -5150.00000000347 -5200 -5149.99999999648 -5150.00000000017 -5149.99999999642 -5149.99999999639 -5150.00000000009 -5149.99999999994 -5149.99999999631 -5150 -5200 -5200 -5150.00000000381 -5200 -5149.99999999986 -5150.00000000017 -5200 -5200 -5200 -5149.99999999972 -5150.00000000031 -5150.00000000406 -5200 -5149.99999999588 -5149.99999999585 -5150.00000000046 -5150.00000000048 -5150.00000000051 -5200 -5200 -5149.9999999994 -5150.00000000063 -5150.00000000065 -5149.99999999932 -5150.00000000071 -5150.00000000074 -5200 -5200 -5200 -5150.00000000085 -5200 -5200 -5200 -5200 -5200 -5200 -5149.99999999895 -5149.9999999952 -5150.00000000111 -5200 -5200 -5149.99999999881 -5149.99999999878 -5149.99999999875 -5150.00000000128 -5149.99999999497 -5099.99999999628 -5100 -2000.00000000446 -3020.00000000298 -2460.00000001498 -2850.00000000194 -2529.99999999566 -3120.00000000951 -3099.99999999988 -3470.00000000744 -3640 -3449.99999999388 -3389.99999999825 -3459.99999999423 -3640 -3269.99999999961 -3500.00000000229 -3129.99999999889 -3199.99999999926 -3250.00000000485 -3320.00000000151 -3320.00000000074 -3290.00000000035 -3200.00000000074 -3209.99999999885 -2950.00000000264 -2909.99999999263 -2929.99999999715 -2779.99999999926 -2700.00000000742 -2210.00000000206 -2630.00000000073 -2490.00000000225 -2520.00000000612 -2549.9999999977 -2560 -2520.00000000318 -2470.00000000367 -2570.00000000346 -2460.00000001061 -2280.00000001189 -2420.00000000249 -2430.00000000152 -3050.0000000087 -3270.00000000304 -3289.99999999978 -3369.99999999978 -3490.00000000639 -3769.99999999972 -4050.00000000645 -4399.99999999628 -4599.99999999628 -4800 -4850.00000000657 -4900 -4899.99999999628 -5000 -5000 -5000 -5050.00000000674 -5050.00000000304 -5050.00000000679 -5100 -5049.99999999687 -5049.99999999312 -5099.99999998991 -5150.00000000321 -5099.9999999898 -5099.99999999628 -5100 -5100.00000001037 -5200 -5149.9999999929 -5149.99999999287 -5150.00000000344 -5150.00000000347 -5200 -5200 -5150.00000000728 -5149.99999999642 -5149.99999999267 -5149.99999999636 -5200 -5200 -5100 -5150.00000000748 -5150.00000000378 -5200 -5149.99999999244 -5149.99999999613 -5150.00000000389 -5200 -5149.99999999233 -5200 -5150.00000000773 -5149.99999999224 -5150.00000000406 -5200 -5200 -5149.99999999585 -5200 -5149.99999999579 -5150.00000000423 -5200 -5150.00000000429 -5150.00000000432 -5149.99999999193 -5150.00000000438 -5149.99999999559 -5150.00000000443 -5200 -5200 -5150.00000000452 -5149.99999999173
-360.000000001569 -520.000000004275 -560.0000000044 -520.00000000457 -500.000000002103 -600.0000000044 -660.000000003786 -700.000000003536 -620.000000002058 -1200.00000000355 -3720.00000003157 -5150.00000000227 -5200 -5200 -5149.99999999764 -5150.00000000128 -5150.00000000125 -5149.99999999878 -5150.00000000119 -5149.99999999883 -5149.99999999886 -5200 -5149.99999999741 -5149.99999999738 -5150.00000000264 -5149.99999999733 -5200 -5149.99999999727 -5149.99999999724 -5149.99999999912 -5150.00000000085 -5200 -5200 -5149.9999999971 -5149.99999999926 -5200 -5149.99999999702 -5149.99999999935 -5149.99999999696 -5200 -5200 -5200 -5149.99999999684 -5149.99999999682 -5149.99999999679 -5149.99999999957 -5200 -5150.0000000033 -5200 -5200 -5150.00000000028 -5200 -5150.00000000344 -5150.00000000347 -5200 -5200 -5200 -5150.00000000008 -5200 -5149.99999999997 -5200 -5150.00000000003 -5149.99999999994 -5149.99999999991 -5149.99999999989 -5149.99999999986 -5200 -5150.00000000386 -5149.99999999977 -5150.00000000392 -5200 -5200 -5149.99999999966 -5149.99999999596 -5149.99999999594 -5150.00000000409 -5200 -5150.00000000048 -5149.99999999582 -5150.00000000421 -5149.99999999576 -5200 -5150.00000000429 -5150.00000000432 -5149.99999999565 -5200 -5149.99999999559 -5149.99999999557 -5149.9999999992 -5149.99999999918 -5200 -5200 -5100 -5200 -5150.00000000097 -5200 -5100 -5149.99999999895 -5149.99999999892 -5200 -5200 -5200 -5150.00000000119 -5150.00000000489 -5150.00000000125 -5149.99999999505 -5149.99999999869 -5150.000000005 -5149.99999999864 -3290.00000000248 -2979.99999999626 -2109.9999999957 -1349.99999998956 819.999999991462 -740.00000005532 -3020.00000000136 -3360.00000000054 -3640 -3530.00000000473 -3299.99999999438 -3170.00000000019 -2969.99999998893 -3140.0000000022 -3150.00000000184 -3029.99999999817 -2890.0000000033 -2989.99999999962 -3160.00000000226 -3080.00000000301 -3140.00000000152 -3119.9999999992 -2959.99999999919 -2879.99999999991 -3080.00000000313 -2739.99999999791 -2870.00000000031 -2899.9999999984 -2449.9999999839 -2379.99999999441 -2449.99999999816 -2380.00000000986 -2369.99999999587 -2269.99999999973 -2290.00000000624 -2370.00000000363 -2360 -2370 -2990.0000000131 -3270.0000000005 -3280 -3320 -3340 -3349.99999999874 -3410.00000000053 -3630.00000001141 -4000 -4200 -4450.00000000276 -4799.99999999633 -4849.99999999352 -4849.99999999349 -4900.00000000941 -4950.0000000029 -5000 -5000 -5000 -5050.00000000301 -5050.00000000671 -5100 -5100 -5049.99999999687 -5149.99999999684 -5099.99999999633 -5150.00000000321 -5100.00000001015 -5200 -5149.99999999304 -5149.99999999301 -5149.99999999665 -5200 -5150.00000000708 -5149.99999999289 -5099.9999999894 -5149.99999999284 -5200 -5150.00000000722 -5150.00000000725 -5149.99999999272 -5200 -5149.99999999633 -5200 -5100 -5099.99999998883 -5100.00000001123 -5100 -5149.9999999925 -5149.99999999247 -5150.00000000389 -5149.99999999608 -5150.00000000395 -5149.99999999235 -5200 -5150.0000000077 -5200 -5150.00000000776 -5150.00000000779 -5200 -5100 -5149.99999999579 -5200 -5149.99999999574 -5149.99999999204 -5150.00000000432 -5150.00000000801 -5150.00000000804 -5149.99999999193 -5149.9999999919 -5150.00000000813 -5200 -5149.99999999181 -5150.00000000455 -5149.99999999176
-759.999999995464 -179.999999997584 100.000000001592 69.9999999988745 -10.0000000012278 19.9999999970044 -160 -340.000000000853 -220.000000002166 -400.000000001444 -420.000000000887 -1200.00000000449 -3230.00000003356 -4700.00000001182 -5100.00000000361 -5150.00000000236 -5149.99999999878 -5150.00000000242 -5149.99999999756 -5149.99999999753 -5150.00000000111 -5150.00000000108 -5150.00000000105 -5150.00000000102 -5150.000000001 -5150.00000000264 -5200 -5100 -5150.00000000088 -5150.00000000276 -5200 -5200 -5149.99999999923 -5149.99999999713 -5200 -5149.99999999707 -5150.00000000296 -5150.00000000298 -5200 -5150.00000000304 -5150.00000000307 -5150.00000000051 -5200 -5149.99999999955 -5200 -5150.0000000004 -5100 -5150.00000000034 -5200 -5150.00000000333 -5149.99999999665 -5100 -5200 -5150.00000000017 -5150.00000000014 -5150.0000000035 -5150.00000000352 -5150.00000000006 -5149.99999999997 -5150 -5150.00000000364 -5100 -5200 -5200 -5149.99999999625 -5150.00000000378 -5100 -5200 -5149.99999999974 -5149.99999999611 -5150.00000000392 -5200 -5149.99999999602 -5200 -5149.99999999957 -5150.00000000406 -5150.00000000409 -5149.99999999588 -5150.00000000054 -5200 -5200 -5200 -5149.99999999574 -5149.99999999932 -5149.99999999929 -5150.00000000435 -5200 -5200 -5150.00000000082 -5200 -5150.00000000449 -5149.99999999548 -5150.00000000094 -5200 -5149.9999999954 -5150.00000000463 -5150.00000000105 -5150.00000000469 -5150.00000000111 -5150.00000000114 -5150.00000000477 -5149.9999999952 -5149.99999999517 -5150.00000000486 -5149.99999999511 -5149.99999999508 -5150.00000000495 -5100.00000000361 -5150.00000000139 -3009.99999999528 -2980.00000000014 -2890.00000000148 -1489.99999999584 -799.999999995237 -1960.00000000144 -1710.00000002469 -2490.00000002133 -3099.99999999557 -2200.00000001228 -3069.99999999689 -3039.99999999437 -2510.00000000896 -2400.00000000508 -2929.99999999891 -2929.99999999889 -2520.00000000364 -2710.00000001522 -2849.99999999884 -2970.0000000034 -2979.99999999776 -2989.99999999807 -2899.99999999846 -2820.00000000217 -2789.99999999958 -2770.00000000128 -2719.99999998904 -2650.00000000306 -2589.99999999417 -2570.00000001522 -2549.99999999412 -2449.99999999441 -1840.00000000848 -2380.00000000094 -2610.00000000786 -3230.00000000048 -2979.99999998219 -3309.99999999951 -3320 -3320 -3329.99999999877 -3390.00000000124 -3409.99999999803 -3440 -3720.00000000289 -3899.99999999639 -4250.00000000273 -4650.00000000276 -4800 -4800 -4850.00000000645 -4950.00000000287 -5000 -5000 -4950.00000000296 -5000 -5049.99999999699 -5000 -5000 -5050.0000000031 -5100 -5100 -5149.99999999321 -5150.00000000321 -5100.00000000361 -5149.99999999673 -5150.00000000691 -5149.99999999307 -5100 -5149.99999999662 -5150.00000000341 -5150.00000000344 -5149.99999999292 -5200 -5100 -5149.99999999645 -5200 -5149.99999999278 -5149.99999999275 -5150.00000000728 -5150.0000000073 -5150.00000000733 -5149.99999999264 -5150.00000000378 -5150.00000000742 -5050.00000000384 -5100 -5099.99999999639 -5200 -5149.99999999605 -5150.00000000759 -5150.00000000762 -5149.99999999596 -5149.99999999594 -5149.9999999923 -5150.00000000412 -5149.99999999585 -5200 -5100 -5149.99999999216 -5150.00000000787 -5149.9999999921 -5200 -5200 -5200 -5200 -5149.99999999196 -5149.99999999193 -5150.0000000081 -5200 -5200 -5149.99999999542 -5200
-3199.99999998868 -1459.99999999465 -539.999999996078 -149.999999996135 10.000000001728 10.0000000017224 -40.0000000028422 -140.000000000841 -160 -99.9999999984254 -160 -380.000000000887 -480.000000003217 -890.000000007958 -1290.00000000678 -2150.00000002711 -3510.00000003692 -4700.00000001665 -5050.00000000242 -5100.00000000355 -5150.00000000247 -5100.00000000355 -5200 -5149.99999999744 -5200 -5150.00000000094 -5149.99999999736 -5149.99999999912 -5149.9999999973 -5200 -5149.9999999992 -5149.99999999923 -5200 -5149.99999999929 -5200 -5149.9999999971 -5150.00000000293 -5149.99999999704 -5149.99999999702 -5149.99999999946 -5100 -5149.99999999693 -5150.00000000045 -5149.99999999687 -5200 -5150.00000000037 -5200 -5149.99999999969 -5150.00000000028 -5150.00000000026 -5149.99999999667 -5150.0000000002 -5150.00000000338 -5150.00000000341 -5149.99999999989 -5200 -5200 -5100 -5150 -5200 -5200 -5149.99999999991 -5149.99999999989 -5200 -5150.00000000017 -5150.0000000002 -5150.00000000023 -5200 -5150.00000000028 -5200 -5200 -5150.00000000037 -5150.0000000004 -5200 -5150.00000000401 -5200 -5149.99999999594 -5149.99999999946 -5200 -5200 -5149.99999999582 -5100 -5149.99999999932 -5150.00000000071 -5149.99999999926 -5149.99999999923 -5149.99999999565 -5149.99999999918 -5200 -5150.00000000443 -5150.00000000091 -5100 -5150.00000000097 -5200 -5200 -5150.0000000046 -5149.99999999892 -5149.99999999889 -5149.99999999886 -5150.00000000472 -5149.9999999988 -5149.99999999523 -5200 -5100 -5200 -5149.99999999511 -5149.99999999864 -5150.00000000494 -5099.9999999936 -5049.99999999855 -4600.00000000355 -3539.99999999343 -2719.99999999848 -2529.99999999551 -2559.99999999312 -949.999999987074 -2439.99999999579 -2700.00000000209 -2480.00000001549 -2980.00000000073 -3230.00000000036 -3200.00000000499 -3169.99999999676 -2440.00000002379 -2899.99999999353 -2779.99999999264 -2809.99999999813 -2739.99999999922 -2720.00000000159 -2769.99999999798 -2780 -2739.99999999775 -2800.0000000055 -2809.99999999872 -2720 -2700.0000000023 -2780.00000000106 -2659.99999999768 -2800.00000000261 -3080.00000000524 -3269.99999999882 -3289.99999999645 -3290.00000000048 -3320 -3340 -3339.99999999929 -3350.00000000121 -3360 -3389.99999999807 -3410.00000000052 -3420.00000000071 -3419.99999999929 -3590.00000000622 -3759.99999999784 -4099.99999999645 -4550.00000000631 -4750.00000000634 -4849.99999999363 -4849.99999999716 -4949.99999999358 -4949.9999999971 -4900.00000000355 -4800.00000000355 -4850.00000000654 -5000 -5050.00000000659 -5000 -5050.00000000665 -5100 -5049.99999999329 -5100 -5100.00000000355 -5050.00000000679 -5100.00000000355 -5099.99999999645 -5149.99999999667 -5099.99999998974 -5200 -5149.99999999659 -5150.00000000344 -5149.99999999298 -5150.0000000035 -5150.00000000352 -5200 -5149.99999999642 -5150.00000000716 -5149.99999999281 -5100 -5200 -5149.99999999272 -5150.0000000073 -5149.99999999622 -5149.99999999619 -5149.99999999616 -5200 -5149.99999999255 -5149.99999999608 -5100 -5150.00000000398 -5149.99999999599 -5149.99999999596 -5150.00000000762 -5149.99999999235 -5150.00000000412 -5150.00000000415 -5149.99999999582 -5149.99999999579 -5149.99999999576 -5200 -5149.99999999215 -5200 -5149.9999999921 -5150.00000000438 -5200 -5149.99999999201 -5149.99999999198 -5150.00000000449 -5200 -5200 -5150.00000000813 -5150.0000000046 -5149.99999999181
-5000 -3589.99999999194 -1529.99999999729 -1099.9999999993 -739.999999996021 -289.999999997391 -69.9999999991303 20.0000000008299 -130.000000000136 -130.000000000972 -69.9999999985391 69.9999999955378 -160 -290.000000001347 -560.000000000421 -780.000000004604 -1000.00000000443 -1060.0000000021 -1120 -1150.00000000118 -940.000000005178 -760.000000007913 -5000.00000000651 -5200 -5150.00000000256 -5149.99999999909 -5150.00000000088 -5150.00000000264 -5200 -5150.0000000027 -5200 -5150.00000000074 -5150.00000000278 -5100 -5150.00000000065 -5200 -5200 -5149.99999999707 -5149.99999999704 -5149.99999999949 -5150.00000000048 -5150.00000000045 -5150.00000000307 -5150.0000000004 -5149.99999999687 -5149.99999999685 -5149.99999999969 -5150.00000000028 -5150.00000000026 -5200 -5200 -5149.99999999667 -5149.99999999986 -5150.00000000011 -5200 -5150.00000000344 -5150.00000000347 -5150 -5149.99999999997 -5200 -5150.00000000009 -5149.99999999989 -5200 -5200 -5149.99999999631 -5150.00000000372 -5200 -5149.99999999622 -5149.99999999969 -5149.99999999966 -5149.99999999963 -5150.0000000004 -5099.9999999965 -5149.99999999605 -5149.99999999952 -5150.00000000051 -5150.00000000054 -5200 -5150.00000000409 -5149.99999999938 -5200 -5200 -5149.99999999929 -5149.99999999926 -5100 -5200 -5150.00000000432 -5150.00000000435 -5150.00000000438 -5150.00000000441 -5150.00000000094 -5149.99999999903 -5149.999999999 -5149.99999999898 -5149.99999999895 -5150.00000000108 -5150.00000000111 -5149.99999999886 -5150.00000000117 -5200 -5150.00000000472 -5150.00000000125 -5200 -5150.00000000131 -5150.00000000483 -5200 -5150.00000000489 -5099.99999999366 -5000 -4749.99999999852 -4449.999999995 -4059.99999998564 -2810.00000000749 -3039.99999999727 -3120.00000000339 -3139.99999999243 -3030.00000000036 -2929.99999999821 -2649.99999999405 -590.000000009464 -1160.00000002676 -3150.00000000319 -3029.99999999823 -3150.00000000107 -3060.00000000121 -3189.9999999931 -2900.00000000078 -2900.0000000001 -2899.99999999941 -2680.00000000304 -2729.99999999583 -2799.99999999832 -2720.00000000171 -2879.99999999704 -3120.00000000368 -3229.99999999816 -3240 -3050.00000001207 -3259.99999999908 -3309.99999999883 -3330.00000000047 -3349.99999999882 -3389.99999999978 -3399.99999999762 -3370.0000000005 -3369.9999999995 -3389.9999999988 -3409.99999999879 -3530.00000000919 -3440 -3590.00000000614 -3640 -3640 -4000 -4100.00000000901 -4400 -4650.00000000631 -4749.99999999716 -4850.00000000637 -4550.00000000409 -3409.9999999973 -3289.99999999989 -4150.00000001245 -4849.99999999349 -5000 -5000 -5050.0000000031 -5100 -5049.99999999335 -5100.00000000986 -5100 -5050.00000000324 -5150.00000000327 -5099.99999998991 -5149.99999999318 -5149.99999999665 -5150.00000000338 -5149.99999999309 -5149.99999999656 -5200 -5150.0000000035 -5200 -5149.99999999295 -5150.00000000358 -5149.9999999929 -5200 -5149.99999999284 -5150.0000000037 -5150.00000000372 -5149.99999999625 -5200 -5150.0000000073 -5200 -5100 -5200 -5150.00000000392 -5200 -5150.00000000398 -5200 -5149.99999999247 -5150.00000000756 -5149.99999999591 -5200 -5200 -5200 -5149.99999999579 -5149.99999999577 -5200 -5150.00000000429 -5149.99999999568 -5149.99999999565 -5149.99999999562 -5200 -5150.00000000443 -5200 -5149.99999999551 -5150.00000000801 -5200 -5149.99999999542 -5149.9999999919 -5149.99999999537 -5150.00000000466
-3810.00000001051 -4499.99999999937 -2239.99999999757 -1349.99999999884 -1160 -1109.9999999996 -360 -139.999999999181 -129.999999999039 40.0000000008413 -89.9999999997385 -90.0000000002558 129.999999996248 -119.999999999801 -149.999999999761 -140 -140.000000000688 -90.0000000004206 409.999999999096 609.999999996351 210.000000003087 -170.000000001756 -2660.00000001613 -5150.00000000094 -5149.99999999909 -5200 -5149.99999999741 -5149.99999999918 -5200 -5149.99999999733 -5200 -5149.99999999727 -5150.00000000068 -5150.00000000065 -5149.99999999937 -5200 -5150.00000000057 -5150.0000000029 -5150.00000000293 -5149.99999999952 -5150.00000000045 -5200 -5150.0000000004 -5150.00000000037 -5149.9999999969 -5150.00000000313 -5150.00000000028 -5149.99999999974 -5200 -5149.99999999676 -5149.99999999983 -5150.00000000014 -5149.99999999667 -5150.00000000008 -5150.00000000338 -5149.99999999997 -5149.99999999656 -5149.99999999997 -5149.99999999994 -5200 -5200 -5149.99999999642 -5149.99999999639 -5200 -5200 -5150.00000000026 -5149.99999999972 -5149.99999999969 -5200 -5200 -5200 -5150.00000000043 -5200 -5100 -5150.00000000051 -5149.99999999602 -5150.00000000401 -5150.0000000006 -5149.99999999594 -5200 -5200 -5149.99999999585 -5149.99999999582 -5149.99999999579 -5150.00000000423 -5200 -5149.99999999571 -5150.00000000432 -5149.99999999565 -5149.99999999562 -5150.00000000097 -5149.999999999 -5150.00000000102 -5100 -5149.99999999892 -5150.00000000455 -5149.99999999542 -5200 -5150.00000000119 -5150.00000000122 -5149.99999999531 -5149.99999999872 -5149.99999999869 -5200 -5200 -5200 -5150.00000000486 -5100 -4900 -4849.99999999505 -4850.00000000497 -4199.99999999 -2960.00000000392 -2229.99999998113 -2819.99999999868 -3039.99999999794 -2970.00000000034 -3040.00000000069 -2980.0000000021 -2969.99999999758 -1399.99999998686 -1290.0000000045 -1580.00000005365 -2530.00000001016 -3020.00000000421 -3089.99999999745 -3079.99999999349 -3059.9999999985 -3010.00000000398 -2890.00000000222 -3039.99999999847 -2810.00000000128 -2850.0000000013 -2889.99999998449 -3030.00000002739 -3290.00000000114 -3300.0000000016 -3320 -3320 -3360 -3430.00000000117 -3419.99999999931 -3440 -3429.99999999882 -3430.00000000119 -3430.00000000051 -3440 -3489.99999999741 -3539.99999999656 -3640 -3680.00000000489 -3679.99999999509 -3760.00000000218 -3719.99999999725 -3800 -3850.00000000625 -3900.00000000344 -4100.00000000344 -3949.99999999366 -4000 -3859.99999999145 -4000 -4400.0000000129 -4950.00000000304 -5000 -5100 -5100 -5050.00000000315 -5050.00000000318 -5099.99999999656 -5049.99999999332 -5149.99999999673 -5150.0000000033 -5099.99999999656 -5150.00000000335 -5150.00000000682 -5149.99999999659 -5200 -5149.99999999309 -5150.00000000693 -5150.00000000352 -5149.99999999301 -5100 -5149.99999999639 -5149.99999999292 -5149.99999999289 -5150.00000000369 -5200 -5100 -5149.99999999622 -5149.99999999619 -5149.99999999272 -5149.9999999927 -5150.00000000733 -5150.00000000736 -5200 -5200 -5149.99999999599 -5149.99999999596 -5200 -5150.00000000753 -5149.99999999588 -5149.99999999241 -5150.00000000762 -5200 -5200 -5200 -5149.99999999571 -5149.99999999224 -5150.00000000435 -5150.00000000438 -5150.00000000784 -5150.00000000787 -5200 -5200 -5149.99999999204 -5150.00000000455 -5149.99999999542 -4379.9999999935 -1220.00000000036 -950.000000006634 -860.00000000519
-1840.00000000411 -3470.00000000259 -2379.99999999948 -1450.0000000003 -1319.99999999797 -1120 -1089.99999999881 -400.000000001091 -209.999999997954 -119.99999999917 49.9999999992497 -89.9999999995737 39.9999999998124 310.000000000836 279.99999999776 320.000000000676 140.000000000443 400.000000001222 620 209.999999998033 -29.9999999964189 -160 -1220.00000000354 -5149.99999999753 -5149.99999999912 -5200 -5150.00000000082 -5200 -5200 -5200 -5150.00000000267 -5200 -5200 -5200 -5149.99999999722 -5149.99999999943 -5149.99999999946 -5149.99999999713 -5150.0000000029 -5200 -5149.99999999704 -5149.9999999996 -5200 -5200 -5200 -5150.00000000028 -5149.99999999687 -5150.00000000316 -5200 -5149.99999999983 -5200 -5150.00000000327 -5150.0000000033 -5200 -5150.00000000335 -5150 -5149.99999999659 -5200 -5200 -5149.99999999989 -5149.99999999648 -5149.99999999983 -5149.9999999998 -5150.00000000023 -5200 -5200 -5200 -5149.99999999966 -5150.00000000375 -5150.00000000378 -5150.00000000043 -5150.00000000384 -5149.99999999613 -5149.99999999611 -5150.00000000054 -5150.00000000395 -5150.0000000006 -5149.99999999599 -5149.99999999935 -5150.00000000068 -5149.99999999929 -5150.00000000412 -5150.00000000077 -5200 -5150.00000000421 -5150.00000000085 -5200 -5150.00000000091 -5200 -5150.00000000097 -5149.99999999562 -5100 -5149.99999999895 -5150.00000000446 -5149.99999999551 -5150.00000000452 -5149.99999999545 -5150.00000000458 -5149.99999999878 -5200 -5149.99999999872 -5149.99999999531 -5200 -5149.99999999525 -5100 -5200 -5149.99999999517 -5099.99999999366 -5000 -5049.99999999508 -5000 -4200.00000000656 -2810.000000003 -2760 -2779.99999999797 -2849.99999999358 -2860.00000000473 -2970.00000000447 -2969.99999999113 -2999.99999999927 -3049.99999999255 -2659.9999999831 -2329.9999999915 -1199.99999998831 -2139.99999999259 -930.000000042854 -2380.00000001811 -2960.00000000352 -3070.00000000041 -3029.99999999925 -2700.0000000005 -2769.99999999889 -2780.00000000155 -2790.00000000112 -2839.9999999982 -2729.99999999208 -3060.00000002956 -3359.99999999932 -3480.00000000283 -3640 -3640 -3679.99999999804 -3640 -3479.999999997 -3430.00000000118 -3430.00000000051 -3490.00000000259 -3590.00000000261 -3540 -3590.00000000267 -3679.99999999513 -3679.99999999782 -3719.99999999729 -3720 -3769.9999999938 -3950.00000000284 -3950.00000000625 -4000 -4049.99999999707 -3900.00000000338 -3949.99999999702 -4050.00000000301 -4300.00000001285 -5000 -5049.99999999352 -5099.99999999662 -5100 -5100 -5100 -5099.99999999014 -5149.99999999673 -5100 -5150.00000000333 -5149.99999999665 -5200 -5100.0000000102 -5149.99999999656 -5149.99999999315 -5200 -5150.00000000353 -5150.00000000355 -5200 -5200 -5150.00000000702 -5150.00000000367 -5200 -5150.0000000071 -5100 -5200 -5100 -5150.00000000722 -5200 -5149.99999999611 -5149.9999999927 -5200 -5149.99999999264 -5200 -5149.99999999258 -5149.99999999255 -5150.00000000748 -5149.9999999925 -5149.99999999247 -5149.99999999582 -5150.00000000421 -5200 -5200 -5149.99999999233 -5200 -5149.99999999227 -4899.99999999801 -2550.00000000042 -1330.00000001239 -1690.00000003528 -3560.00000004754 -4450.00000002481 -4550.00000001236 -3480.00000001707 -889.999999999642 -180.000000001177 -219.999999997971 -350.000000009425 -369.999999992434
-1550.00000000056 -2070.00000000388 -2050.00000000266 -1440 -1260 -1170.00000000017 -1110.00000000027 -400.000000001069 -220.000000001995 -160 30.0000000020805 49.9999999990905 390.000000001091 409.999999996709 430.000000000227 449.999999999113 589.999999997789 510.000000004201 140.000000001074 -99.9999999988006 -129.999999999807 -260.00000000145 -890.000000004826 -5149.99999999756 -5149.99999999915 -5200 -5200 -5150.00000000256 -5149.99999999926 -5200 -5200 -5150.00000000065 -5149.99999999937 -5150.0000000006 -5200 -5150.00000000278 -5149.99999999949 -5149.99999999716 -5150.00000000045 -5150.00000000043 -5150.00000000293 -5150.00000000037 -5150.00000000034 -5149.99999999699 -5200 -5149.99999999974 -5149.9999999969 -5200 -5149.99999999983 -5150.00000000318 -5150.00000000321 -5100 -5150.00000000006 -5149.9999999967 -5150 -5150.00000000335 -5150.00000000006 -5149.99999999659 -5200 -5150.00000000014 -5149.9999999965 -5149.9999999998 -5149.99999999977 -5200 -5150.00000000361 -5150.00000000364 -5200 -5200 -5150.00000000372 -5200 -5150.00000000378 -5200 -5150.00000000051 -5200 -5150.00000000389 -5149.99999999608 -5200 -5200 -5200 -5149.99999999929 -5200 -5150.00000000077 -5150.0000000008 -5149.99999999918 -5150.00000000418 -5150.00000000421 -5200 -5149.99999999574 -5149.99999999903 -5200 -5200 -5150.00000000105 -5150.00000000108 -5149.99999999889 -5200 -5150.00000000117 -5150.00000000452 -5200 -5149.99999999875 -5149.9999999954 -5149.99999999869 -5150.00000000134 -5149.99999999531 -5149.99999999528 -5150.00000000475 -5149.99999999523 -5149.99999999852 -5099.99999999366 -5149.99999999846 -5100 -3869.99999998351 -4100 -4300 -2720.00000000267 -2829.9999999963 -2929.99999999968 -2799.9999999966 -2739.99999999115 -2840.00000000133 -2860.00000000074 -3050.0000000017 -3090.00000000038 -2949.99999999873 -2940.00000000055 -2999.99999999907 -2599.99999997127 -1739.99999999279 -1249.99999998117 -2280.00000001622 -2449.99999996968 -2480.00000000625 -2720 -2549.99999999911 -2679.99999999218 -2720.00000000109 -2639.99999999816 -2699.99999999548 -3370.00000000114 -3420 -3719.99999999734 -3589.99999999423 -3489.9999999942 -3420.00000000067 -3410.00000000117 -3430.00000000118 -3440 -3440 -2629.99999998784 -2430.0000000036 -2509.99999999946 -2520 -2760.00000002277 -3769.99999999123 -3720.00000000266 -3759.99999999507 -3900 -3759.99999999768 -3849.99999999375 -3949.99999999704 -4000 -2339.999999998 -2420.00000000122 -2499.99999999933 -2520.00000000057 -2600 -2599.99999999734 -2559.99999999407 -2399.99999999273 -3790.00000003866 -5149.99999999673 -5150.0000000033 -5100 -5150.00000000668 -5149.99999999329 -5149.99999999659 -5149.99999999656 -5200 -5150.00000000682 -5149.99999999647 -5150.00000000355 -5150.00000000691 -5150.00000000693 -5200 -5150.00000000367 -5149.99999999298 -5149.99999999295 -5200 -5150.00000000378 -5149.99999999619 -5149.99999999284 -5149.99999999613 -5150.00000000722 -5200 -5200 -5150.00000000398 -5150.00000000401 -5149.99999999264 -5100 -5149.99999999258 -5149.99999999255 -5200 -5200 -5150.00000000421 -5149.99999999576 -5150.00000000759 -5150.00000000429 -5200 -4849.99999999898 -1549.99999997636 -759.999999993815 -600 -700.000000003115 -659.999999995543 -259.999999996675 -160 -279.999999998505 -499.999999992838 -519.99999999867 -500.000000003195 -419.999999993042 -360 -119.999999998101
-1359.99999999718 -1410.00000000089 -1319.99999999978 -1259.99999999974 -1130.00000000038 -1070.00000000136 -340.000000000534 -319.999999998693 -170.000000000398 -160 10.0000000012278 240 219.999999999534 579.99999999909 519.999999998482 1100.00000000043 859.999999996686 250.000000001512 -120 -160 -379.999999999625 -420.000000000216 -460.000000001558 -5149.99999999758 -5200 -5100 -5149.99999999923 -5150.00000000253 -5200 -5150.00000000259 -5149.99999999935 -5200 -5100 -5200 -5149.99999999946 -5200 -5200 -5149.99999999719 -5149.99999999716 -5200 -5150.00000000037 -5100 -5100 -5150.00000000028 -5200 -5060.00000000458 -5060.00000000458 -5149.9999999969 -5150.00000000014 -5149.99999999685 -5200 -5200 -5150.00000000003 -5150.00000000327 -5150.0000000033 -5149.99999999994 -5149.99999999665 -5150.00000000338 -5149.99999999986 -5150.00000000344 -5150.00000000347 -5150.00000000023 -5150.00000000352 -5150.00000000355 -5200 -5200 -5149.99999999963 -5200 -5150.00000000043 -5150.00000000046 -5149.99999999952 -5149.99999999622 -5149.99999999946 -5150.00000000057 -5150.0000000006 -5200 -5200 -5150.00000000068 -5150.00000000071 -5200 -5150.00000000404 -5150.0000000008 -5100 -5149.99999999588 -5149.99999999912 -5150.00000000091 -5150.00000000094 -5200 -5150.00000000426 -5200 -5150.00000000432 -5150.00000000435 -5200 -5200 -5149.99999999883 -5150.00000000446 -5150.00000000449 -5149.99999999548 -5150.00000000128 -5149.99999999542 -5149.99999999866 -5150.00000000463 -5150.00000000466 -5150.00000000142 -5149.99999999528 -5200 -5150.00000000477 -5100 -5100 -5100 -5000 -3309.99999999639 -3520.0000000086 -4200 -2580.00000000069 -2600.00000000543 -2599.99999999237 -2780.00000000138 -2779.99999999918 -2850.0000000057 -2749.99999999831 -2979.99999999727 -2880 -3020.00000000145 -2910.00000000625 -2929.99999999877 -2890.00000000368 -2709.99999999117 -2609.99999999375 -2219.99999998524 -689.99999993737 -1700.0000000141 -2200.00000000327 -2410.00000000372 -2580.00000001206 -3380.00000000159 -3389.99999999982 -3430.00000000048 -3490.00000000568 -3680.00000000195 -3720.00000000261 -3539.99999999673 -3409.99999999884 -3409.99999999883 -3409.99999999948 -3470.00000000431 -2459.99999999291 -2470.0000000016 -2540.00000000239 -2619.99999999978 -2660.00000000241 -2680 -2680 -2680 -2680 -2699.99999999049 -3080.00000004747 -4100 -2669.99999997237 -2110.00000000377 -2360.00000000374 -2510.00000000127 -2470.00000000186 -2659.99999999233 -2699.99999999874 -2760 -2770.00000000064 -2829.99999999739 -2819.99999999412 -2829.99999999673 -2729.99999999341 -2629.99999999675 -2319.99999999206 -4420.00000010419 -5150.00000000344 -5149.99999999653 -5200 -5150.00000000353 -5200 -5200 -5200 -5200 -5150.00000000367 -5150.0000000037 -5200 -5150.00000000375 -5150.00000000705 -5200 -5150.0000000071 -5150.00000000713 -5200 -5149.99999999281 -5149.99999999605 -5200 -5200 -5200 -5200 -5149.99999999264 -5149.99999999588 -5150.00000000742 -5200 -5150.00000000748 -5149.99999999577 -5200 -5200 -4899.99999998272 -2450.00000000484 -940.000000001074 -579.99999999693 -500.000000000466 -500.000000000477 -840.000000006207 -860.000000003422 -599.999999998977 -419.999999996862 -460.000000000534 -320.000000002723 9.99999999877787 269.999999995055 250.000000001091 10.0000000003581 -440
-1150.00000000099 -1160.00000000128 -1120 -1090.00000000084 -320 -320 -299.999999999477 -340.000000000512 -160 149.99999999639 99.9999999993577 200.000000000176 229.99999999913 480.00000000104 560.000000003843 550.000000001717 939.999999999824 299.999999998869 -129.999999998647 -759.999999996146 -759.999999997431 -699.999999998943 -999.999999995765 -4120.00000001412 -5150.00000000242 -5200 -5200 -5150.0000000025 -5150.00000000068 -5200 -5149.99999999741 -5149.99999999738 -5200 -5149.99999999733 -5100 -5150.00000000048 -5200 -5100 -5150.0000000004 -5200 -5200 -5130.00000000044 -4920 -4920 -4920 -4920 -4920 -4920 -4920 -4920 -4920 -4920 -5060.0000000045 -5010.00000000126 -5010.00000000123 -5010.00000000458 -5060.0000000045 -5060.0000000045 -5010.00000000111 -5150.0000000002 -5200 -5200 -5200 -5149.99999999647 -5100 -5149.99999999642 -5150.00000000361 -5150.00000000364 -5149.99999999955 -5149.9999999963 -5150.00000000372 -5150.00000000054 -5150.00000000057 -5149.9999999994 -5200 -5149.99999999613 -5150.00000000068 -5149.99999999608 -5150.00000000074 -5149.99999999602 -5150.00000000401 -5150.00000000082 -5149.99999999594 -5200 -5149.99999999588 -5200 -5200 -5149.99999999579 -5149.99999999898 -5149.99999999574 -5149.99999999571 -5150.00000000111 -5150.00000000114 -5150.00000000117 -5149.99999999559 -5150.00000000122 -5149.99999999875 -5100.00000000577 -5200 -5149.99999999545 -5200 -5200 -5100.00000000321 -5150.00000000466 -5200 -5100 -5150.00000000475 -5100 -5149.99999999841 -5149.99999999517 -5149.99999999514 -4899.99999999343 -3290.00000000098 -2769.99999999965 -2770.00000001641 -2100.00000002673 -2579.99999999653 -2699.99999999798 -2910.00000000037 -2810.00000000307 -3010.00000000193 -2949.99999999832 -2870.00000000184 -2830.0000000004 -2790.00000000041 -2799.99999999917 -2729.9999999934 -2660.00000000043 -2590.00000000216 -2799.99999998225 -2639.99999997394 -2050.00000000354 -2220.00000001199 -2650.00000002757 -3039.99999998946 -3389.99999999953 -3420.0000000016 -3590.00000000563 -3640 -3809.99999999298 -3679.999999998 -3489.99999999747 -3410.00000000051 -3410.00000000052 -2569.99999998267 -2430.00000000351 -2540.00000000235 -2619.99999999892 -2640.00000000347 -2620.00000000239 -2680 -2679.99999999871 -2660.00000000242 -2660.00000000014 -2609.99999999955 -2939.99999999807 -2959.9999999925 -2559.99999999477 -2400.00000000795 -2399.9999999925 -2619.99999999866 -2379.99999999371 -2630.00000000691 -2579.99999999679 -2760 -2820.00000000257 -2819.99999999742 -2789.9999999987 -2869.99999999866 -2760 -2440.00000001506 -2830.00000000531 -2929.99999999868 -2890.00000000069 -2669.99999999471 -2359.99999998489 -4130.0000000999 -5150.00000000355 -5149.99999999642 -5200 -5150.00000000364 -5149.99999999633 -5200 -5200 -5200 -5149.99999999622 -5149.99999999298 -5150.00000000384 -5200 -5149.99999999289 -5200 -5200 -5149.99999999281 -5149.99999999278 -5150.00000000404 -5150.00000000406 -5200 -5149.99999999588 -5150.00000000415 -5200 -5100.00000000321 -4110.00000001486 -2310.00000001505 -1289.9999999972 -1120 -919.999999996521 -740.000000001751 -599.99999999776 -440.000000002569 -419.9999999995 30.0000000001251 -320.000000012369 -459.999999995612 110.000000003195 929.999999996254 1309.99999999401 889.999999996106 -3.05817593471147e-09 5.01927388540935e-09 39.9999999955037 -150.000000012466 -460.000000004491
-1070.00000000102 -1060.00000000177 -1009.99999999987 -720.000000005218 -419.99999999801 -319.999999998738 -320 -259.999999996845 -260 -160 -149.999999999767 -49.9999999987892 -49.9999999985164 -39.9999999966462 50.0000000016826 150.000000001688 330.000000002791 90.000000000091 -800.000000001023 -1139.99999999964 -1299.99999999558 -1559.99999999742 -2460.00000000099 -4010.00000001368 -4950.00000000239 -3720.00000001857 -1400.00000000675 -390.000000011681 -30.0000000039165 -70.0000000040416 -490.000000008629 -890.000000006827 -1120 -1159.99999999874 -1129.99999999947 -1120 -1120 -1320.00000000867 -2160.00000002643 -4640.00000000193 -4820.00000000316 -4870.00000000287 -4920 -4920 -4920 -4920 -4920 -4920 -4920 -4920 -4920 -4920 -4920 -4920 -4920 -4920 -4920 -4920 -4920 -4920 -4920 -4920 -4920 -4920 -4920 -4920 -4920 -4920 -4920 -4800.00000000169 -3090.00000000157 -5200 -5200 -5149.99999999622 -5200 -5150.00000000384 -5149.99999999929 -5150.00000000074 -5150.00000000392 -5200 -5200 -5200 -5149.99999999596 -5200 -5149.99999999906 -5200 -5200 -5200 -5200 -5200 -5150.00000000426 -5149.99999999886 -5100 -5149.99999999565 -5150.00000000438 -5149.99999999875 -5149.99999999872 -5150.00000000131 -5100 -5150.00000000452 -5149.99999999861 -5100.00000000316 -5200 -5100.00000000611 -5100 -5100 -5100 -5100 -5100 -5050.0000000048 -5000 -5000 -4399.99999998676 -3029.99999997746 -2759.99999999802 -2039.99999999922 -2739.99999999926 -2840.00000000276 -2920.00000000013 -3119.99999998997 -2899.99999999937 -2929.99999999691 -3000 -2920.00000000082 -2849.99999999686 -2820.00000000084 -2840 -2840 -2920.00000000301 -2850.000000016 -2700.00000000808 -2459.99999999811 -2099.99999999403 -1899.99999999432 -2340.00000000283 -2669.99999999952 -3060.0000000296 -3400.00000000126 -3540 -3679.999999998 -3540.00000000315 -3409.99999999886 -2579.99999998236 -2400 -2509.99999999884 -2580.00000000107 -2680.00000000252 -2600 -2720 -2680 -2700.00000000014 -2699.99999999988 -2769.99999999943 -2719.99999999569 -1009.99999994579 -2620.00000000347 -2999.99999999311 -3009.99999999934 -2680.00000000018 -1410.00000002834 -2919.99999999561 -2960.00000000126 -3060.00000000315 -3010.00000000126 -2939.99999999745 -2890.00000000061 -2830.00000000061 -2780 -2830.0000000006 -2780 -2830.00000000528 -2860.00000000136 -2940.00000000063 -2880 -2880 -2800 -2739.99999999732 -2719.99999999461 -2729.99999999946 -2389.99999997079 -4360.00000010095 -5200 -5149.99999999628 -5200 -5200 -5149.99999999619 -5149.99999999616 -5149.99999999298 -5200 -5200 -5149.99999999605 -5150.00000000713 -5200 -5149.99999999596 -5149.99999999278 -5150.00000000409 -5200 -5200 -5200 -4849.99999998738 -2639.99999997628 -1139.99999999829 -1000.00000000252 -840 -800 -640.000000001262 -309.99999999244 310.000000007589 360.000000000847 -200.000000006747 -160.000000003871 249.9999999995 860.000000003661 850.000000001074 89.999999992923 -209.999999995282 -319.999999997459 -399.999999998738 -279.999999993685 -219.999999999386 -259.999999996845 -479.999999998738
-960 -920 -579.999999999159 -440 -440 -400 -339.999999998022 -160 -310.000000001904 -309.999999998835 -199.999999999051 -210.000000001108 -209.99999999892 -259.999999996902 -139.99999999917 39.999999999028 269.999999998721 29.9999999963563 -680.00000000299 -780.000000009027 -880.000000008271 -1020.0000000031 -740.000000010567 -630.000000015024 -470.000000017172 -29.9999999982833 159.999999995589 159.999999995566 159.999999995543 159.999999995521 159.999999995498 299.999999999164 290.000000003411 -870.000000006526 -840.000000006196 -800.000000006196 -780.000000002638 -1649.99999997747 -700.000000006952 -710.000000006878 -600.00000000631 -530.000000006662 -710.000000008538 -980.000000010454 -1330.00000001346 -1540.00000001177 -1560.00000001239 -1590.00000001237 -1560.00000001237 -1560.00000001239 -1580.00000001115 -1560.00000001177 -1560.00000001241 -1580.00000001243 -1690.00000001308 -1830.00000001174 -1900.00000001239 -1990.00000001235 -2120.00000001248 -2410.00000001255 -2760.00000001003 -3680.00000003185 -3860.00000003001 -4650.00000000674 -4700.00000000681 -4700.00000000682 -4760.00000000496 -4790.00000000281 -4299.99999999756 -2499.99999999997 -2280.00000000248 -1590.00000001565 -1380.0000000206 -1500.00000000048 -3260.00000006099 -5149.99999999619 -5200 -5200 -5150.00000000389 -5200 -5150.00000000395 -5149.99999999602 -5150.00000000091 -5149.99999999906 -5100 -5149.99999999591 -5200 -5100 -5150.00000000108 -5150.00000000111 -5200 -5150.00000000426 -5200 -5149.99999999878 -5149.99999999875 -5099.99999999434 -5150.00000000131 -5150.00000000134 -5100 -5150.00000000139 -5150.00000000142 -5100 -5099.9999999969 -5049.9999999954 -5100 -5050.00000000156 -5049.99999999841 -5050.00000000472 -5050.00000000165 -5000 -4949.9999999983 -4850.00000000173 -4499.99999999028 -3959.99999998941 -3640 -2800 -2890.00000000099 -3169.999999997 -3109.99999999311 -3290.00000000101 -3239.99999999982 -3149.99999999854 -3139.99999999938 -3150.00000000186 -3059.99999999646 -2979.99999999752 -3010.00000000019 -3030.00000000106 -2969.99999999468 -2880.00000000028 -2920.00000000124 -2730.00000000322 -2599.99999998915 -3010.00000001306 -3340.00000000095 -2889.99999998774 -2379.99999999292 -3030.00000001014 -3290.00000000112 -3320.00000000062 -2290.00000000563 -2450.00000000259 -2480.00000000414 -2570.00000000035 -2580.00000000107 -2550.0000000027 -2789.99999999883 -2760 -2720.00000000347 -2739.99999999764 -2760.000000003 -2770.00000000287 -2810.00000000174 -2820.00000000117 -2940.00000000062 -3070.00000000542 -3009.99999999509 -2930.00000000247 -1859.99999997894 -1020.00000002045 -2890.00000000124 -2990.00000000189 -2939.99999999869 -2979.99999999995 -2929.99999999935 -2929.99999999873 -2980.00000000062 -3060.00000000062 -3050.00000000697 -3089.99999999684 -2979.9999999969 -2949.99999999945 -2919.99999999799 -2679.99999999193 -2859.99999999859 -2809.99999999725 -2819.99999999733 -2810.00000000217 -2779.99999999793 -2769.99999999865 -2760 -2739.99999999727 -2739.9999999985 -2750.00000000537 -2719.99999998342 -3990.000000029 -5100.0000000031 -5100.0000000031 -5100 -4900.0000000031 -4300.00000002345 -4900.0000000031 -5049.99999999596 -4999.99999999187 -4850.0000000021 -4090.00000002086 -3110.0000000049 -2109.99999999899 -1320.00000000372 -1140.00000000062 -1120 -960.000000001239 -819.999999998272 -680 -520.000000001239 -419.999999998238 -209.999999995566 120.000000002876 419.999999995663 1020.00000000542 829.999999996732 199.999999997578 -100.000000003683 -160 -139.99999999938 -170.000000000938 -480.000000005014 -620.000000003138 -659.99999999809 -639.999999998761 -600 -639.999999998761
-920 -879.999999999875 -740.000000000387 -580.000000000523 -480.000000001023 -239.9999999995 -240.000000002314 -160 -289.999999998875 -160 -160 -399.999999996112 -1020.00000000304 200 399.999999996419 990.000000003513 1340.00000000182 960 659.999999998721 249.999999999903 110.000000001381 110.000000001666 110.00000000137 169.999999998636 249.999999998965 359.999999999329 379.999999999739 599.999999997999 559.999999987989 399.999999994145 319.999999994998 379.999999997164 889.999999988597 -140.000000006327 100.000000001825 -69.9999999999204 -910.000000000699 -1020.00000000453 -1030.00000000275 -780.000000004258 -680.000000004258 -660.000000001825 -610.000000000728 -620.000000003513 -650.000000003678 -670.000000003672 -720.000000004866 -660.000000004843 -990.000000004871 -1600.00000000791 -509.9999999848 -469.999999984129 -159.999999994458 -279.999999996015 -229.999999985357 -760.000000003996 -1030.00000000231 -1310.0000000043 -999.999999979303 -440.000000003376 -120.000000002433 -210.000000003718 -310.000000004479 -390.000000004178 -400.000000004866 -420.000000004866 -610.000000006895 -1030.00000001087 -1230.00000000741 -1020.00000000426 -759.999999998914 -579.99999999975 -570.000000002393 -309.999999996339 -170.000000001359 -379.999999997584 -690.000000005349 -1110.00000000225 -899.99999999967 -1090.00000000051 -1739.99999998021 -5200 -5150.00000000094 -5149.99999999599 -5100 -5200 -5149.99999999591 -5200 -5149.99999999889 -5149.99999999886 -5149.99999999883 -5200 -5099.99999999696 -5099.99999999696 -5100 -5049.99999999565 -5100 -5149.9999999956 -5050.00000000443 -5100.00000000304 -5000 -5050.00000000452 -5049.99999999849 -5000 -5050.00000000156 -5000 -5049.99999999534 -5049.99999999835 -5000 -4419.99999998022 -2540.00000000139 -2729.99999999469 -2699.99999999972 -2780.00000000061 -2099.99999997619 -2740.00000000529 -2920.00000000061 -3010.00000000359 -3210.00000000039 -3280.00000000122 -3280 -3060.00000000122 -3259.99999999878 -3200.00000000229 -3029.99999999641 -3159.99999999533 -3140 -3080 -3029.99999999894 -2929.99999999742 -2820.00000000214 -2720.00000000122 -2589.9999999967 -2570.00000000812 -2729.99999999758 -2959.99999998533 -3269.9999999973 -3289.99999999667 -2429.99999998208 -2400.00000000489 -2469.99999999845 -2500 -2529.9999999972 -2509.99999999886 -2640.00000000122 -2839.99999999878 -2769.99999999945 -2819.99999999889 -2860.00000000052 -2900.00000000061 -2949.99999999699 -2900.00000000061 -2840.00000000234 -2949.99999999819 -2920.00000000061 -2969.99999999879 -2929.99999999878 -2880.00000000122 -3029.99999999447 -2930.00000000062 -2880.00000000065 -2659.99999998628 -2780.00000001068 -2900.00000000061 -2899.99999999808 -2929.99999999873 -2839.99999999624 -2840.00000000013 -3049.99999999811 -3140.00000000136 -3139.99999999802 -3120 -3089.9999999993 -3029.9999999999 -2880.00000000081 -2880 -2910.00000000133 -2899.99999999939 -2840 -2840 -2810.00000000163 -2769.99999999864 -2659.99999999849 -2559.99999999726 -2520.00000000336 -2700.00000000276 -2820.00000000277 -2859.99999999843 -2720 -2399.99999999635 -2050.00000000373 -1769.99999998705 -1720.00000000264 -1779.99999999247 -919.999999986125 -1709.99999999087 -1250.00000000099 -1120 -1109.99999999915 -800.000000001216 -680 -619.999999997056 -499.999999998261 -339.999999998249 -210.000000007446 -250.000000002154 140.000000002314 800.000000002956 1080.00000000243 759.999999996976 299.999999993901 -80.0000000012335 -300.000000001853 -240.000000004906 -169.999999998454 -340.000000003104 -600 -579.99999999809 -580.000000003138 -560 -640.000000001216 -640.000000001216
-860.000000000648 -720 -620.000000000523 -420.000000001705 -329.999999999443 -340.000000000705 -220.000000001791 -70.0000000026205 379.999999996845 679.999999994782 719.99999999082 869.999999996288 1150.00000000576 640.000000000597 810.000000000227 900.000000004485 529.999999997561 699.99999999452 439.999999997698 110.000000000432 289.999999997135 319.999999998244 540.000000002973 209.999999999574 399.999999999727 549.999999989609 1069.99999999533 709.999999999523 220.000000006565 629.999999995282 390.00000000191 210.000000001097 80.0000000001819 0 -9.99999999992042 -119.999999999551 -210.000000004161 -530.000000001006 -410.000000000057 -139.999999999505 -69.9999999994486 -260 -310.000000000563 -270.000000000028 -240 -209.99999999942 -260.000000000574 -300.000000000597 -349.999999999403 -380.000000000608 -430.000000000608 -430.000000000614 -379.999999999358 -439.99999999946 -480 -469.99999999996 -460.000000000597 -500.000000000597 -469.999999999943 -430.000000001131 -410.000000001859 -490.000000002461 -520.000000001035 -560.000000000426 -660.000000000597 -750.000000003274 -860.000000001995 -899.999999999403 -970.000000003553 -1260.0000000031 -1690.00000000192 -1790.00000000099 -1789.99999999927 -1340.00000000725 -659.999999999403 -729.999999999557 -819.999999996697 -839.999999999136 -1090.00000000026 -1649.99999999803 -1719.99999999128 -5149.99999999906 -5150.00000000395 -5200 -5200 -5150.00000000404 -5200 -5150.00000000111 -5149.99999999588 -5200 -5149.99999999582 -5099.99999999457 -5099.99999999451 -5100.00000000298 -5049.99999999571 -4949.99999999866 -4900.00000000298 -4900.00000000298 -4850.00000000156 -4800.00000000597 -4800.00000000597 -4799.99999999699 -4750.00000000452 -4850.00000000455 -4950.00000000458 -5000 -4949.99999999835 -2680.00000000134 -2929.99999999736 -2860.00000000208 -3219.9999999949 -2869.99999999606 -3019.99999999748 -3069.99999999457 -2949.9999999932 -2900.00000000408 -2950.00000000235 -3100 -3100.0000000006 -3090.00000000219 -2620.00000000747 -2139.99999999857 -2109.99999999898 -2080.00000000094 -2140.00000000412 -2180.00000000147 -2460.00000000179 -2379.9999999991 -2530.00000001549 -2939.9999999994 -2849.99999999588 -2829.99999996778 -2460.00000002232 -2509.99999998889 -2660.00000001731 -2400 -2489.9999999985 -2489.99999999669 -2439.99999999881 -2510.00000000111 -2570.00000000157 -2559.99999999881 -2600 -2679.99999999761 -2720 -2899.99999999949 -2820.00000000111 -2739.99999999887 -2839.99999999821 -2849.99999999704 -2909.99999999823 -2880.00000000413 -2900.0000000006 -2890.0000000006 -3029.9999999994 -3040.0000000006 -3070.00000000307 -3039.99999999633 -3189.9999999884 -2940 -2969.99999999936 -3039.99999999872 -3009.99999999626 -3019.9999999994 -2970.00000000066 -2900 -3060.00000000328 -3030.00000000052 -3150.00000000443 -3079.99999999683 -3079.99999999861 -3070.0000000027 -3049.99999999848 -2989.99999999869 -3030.00000000215 -2989.99999999953 -3059.9999999994 -2920.00000000087 -2860.00000000031 -2870.00000000402 -2769.99999999625 -2680 -2580.00000000033 -2400 -2160.00000000429 -2109.99999999982 -2300.00000000612 -2249.99999999724 -2510.00000000517 -2600.00000000239 -2600.00000000239 -2509.99999999919 -2169.99999998757 -1269.99999996226 -1349.99999999074 -1120 -1109.99999999916 -859.999999998306 -760 -720 -619.999999998272 -380.000000002933 -360 -189.999999993832 329.999999996709 839.999999999983 1080.00000000598 710.000000002063 350.00000000145 130.000000002666 -70.0000000045532 -80 10.0000000027228 -220.000000001961 -460.000000001887 -500.000000003092 -480.000000001194 -480.000000001194 -540.000000003126 -560 -580.000000001955 -540.000000001967
-800.000000001069 -620.000000000523 -359.999999998681 -360 -360 49.9999999982208 509.999999999767 680 680 760.000000004837 880.000000005014 880.000000004331 880.000000005059 600.000000001546 739.99999999871 870.000000005309 1100.00000000082 320.000000001756 530.000000004405 740.000000002456 340.000000000642 140.000000000881 1489.99999999532 840.000000013398 1009.99999999259 900.00000000544 510.000000001876 689.99999999751 280.000000001387 90.0000000010687 -29.9999999993122 -50.0000000008981 -20.000000000415 -19.9999999994145 -29.9999999999261 -80.0000000004491 -419.99999999975 -480 -469.999999999466 -440 -439.999999998909 -419.999999999346 -479.999999999415 -409.999999998312 -440.000000000517 -469.999999998818 -469.999999998238 -489.999999999415 -409.99999999763 -389.999999999426 -400.000000000034 -399.999999998784 -419.999999999415 -409.999999998727 -360 -390.000000001216 -419.999999999312 -380.000000000585 -350.000000000063 -259.999999999278 -110.000000000659 -49.9999999993349 -50.0000000006708 -160.000000001756 -350.000000001074 -659.999999999415 -780.000000000585 -779.99999999834 -840 -1270.00000000096 -1490.00000000039 -740.00000002853 -510.000000008657 -690.000000000733 -729.999999999568 -819.999999996754 -1369.99999999555 -1589.99999999993 -2689.99999999936 -2979.99999999802 -3319.9999999992 -5200 -5150.000000001 -5150.00000000102 -5149.99999999895 -5150.00000000401 -5100.00000000293 -5150.00000000114 -5149.99999999883 -5049.99999999881 -5100 -5000 -4649.99999999909 -3770.00000000689 -2789.99999998513 -3379.99999999945 -3349.99999999972 -3330.0000000003 -3300.00000000001 -3340.00000000059 -3350.0000000003 -3370.00000000028 -3410.0000000009 -3500.0000000041 -3239.99999999444 -2400.00000000542 -2700.00000000184 -2830.00000000414 -3030.00000000141 -2999.99999999824 -2980.00000000813 -2939.99999999358 -3140.00000000441 -3129.99999999995 -3049.99999999962 -3120 -3129.99999999765 -2450.00000002077 -2099.99999999758 -2269.99999999982 -2150.00000000017 -2109.99999999815 -2069.99999999984 -2020.00000000321 -2049.99999999927 -2200.00000000234 -2310.00000000189 -2499.99999999824 -2579.99999999975 -2619.99999999369 -2749.99999999741 -2699.99999999575 -2499.99999999397 -2399.99999999649 -2400 -2460.000000001 -2490.00000000051 -2579.99999999898 -2640 -2619.99999999569 -2680 -2760 -2749.99999999662 -2760 -2769.99999999886 -2739.99999999824 -2819.99999999887 -2569.99999998782 -2639.99999998951 -2599.99999998134 -2880 -2929.99999999941 -3000.00000000295 -2739.99999999473 -2870.00000000894 -2840.0000000072 -3080.00000000241 -3109.99999999152 -3049.99999999986 -2879.99999999745 -2840.00000000374 -2870.00000000006 -2970.00000000169 -2929.99999999802 -2889.99999999875 -2910.00000000184 -2860.0000000037 -2899.99999999805 -2939.99999999921 -3050.00000000384 -3050.0000000007 -3019.99999999859 -3060 -3050.0000000013 -3029.99999999928 -2999.99999999737 -2970.00000000132 -2959.99999999852 -2929.99999999867 -2889.99999999925 -2719.99999999463 -2540.00000000176 -2580.00000000153 -2619.99999999845 -2549.99999999746 -2219.99999999197 -1860.00000000176 -1880.00000000117 -2300.00000000774 -2450.00000000212 -1099.99999991285 -499.999999962779 -1149.99999999976 -1120 -1109.99999999916 -939.999999998318 -799.999999995441 -699.999999998295 -460.000000000625 -260.000000002927 -340.00000000291 -240.000000000006 190.00000000382 659.999999998261 1140.00000000178 1069.99999999309 459.99999999277 -20.0000000066279 -160 -160 -149.999999998488 -290.000000001626 -360 -440 -580.00000000424 -620.000000003081 -680 -680 -639.999999998829 -639.999999998829 -680 -720.000000005127
-740.000000000523 -499.999999999363 -479.999999998852 -360 149.999999998039 549.999999999767 520 510.000000000222 1070.00000000495 1070.0000000048 1070.00000000496 1070.00000000479 1190.00000000459 480.000000000949 699.999999995981 649.999999996953 370.000000001302 110.000000001154 199.999999998028 1000.00000000386 1029.99999999761 1200.00000000633 1140.00000000227 580.000000005224 979.999999999324 1330.00000000639 989.999999991121 670.000000002473 110.000000000307 -19.9999999994259 -69.999999999909 -129.999999998533 -169.999999998772 -429.999999998056 -549.999999998647 -679.999999999426 -789.9999999973 -709.999999999949 -589.99999999938 -609.999999999386 -689.999999999392 -479.999999994429 -669.999999998209 -779.999999997669 -929.999999997118 -1039.99999999827 -1079.99999999943 -1139.99999999944 -1059.99999999651 -959.999999997704 -939.999999998323 -949.999999997044 -909.99999999838 -569.999999998238 -419.999999998278 -419.999999998278 -469.999999998221 -430.000000000063 -459.999999999426 -399.999999998704 -329.999999999505 -179.999999996447 9.99999999990905 -60.0000000007674 -169.999999997601 -479.999999998636 -820.000000001376 -1110.00000000069 -1239.99999999291 -749.999999993707 -900.000000005411 -500.000000001444 -519.999999999147 -759.999999998545 -819.999999996811 -1369.99999999566 -1589.99999999994 -3009.99999999316 -3429.99999999966 -2440.00000001404 -3870.00000000658 -5200 -5149.99999999611 -5000 -5000 -5000 -5000 -5050.00000000117 -5049.99999999594 -5000 -4109.99999999812 -3349.99999999923 -3020.00000002115 -3009.99999997392 -3040.00000000646 -3350.00000000141 -3399.99999999943 -3409.99999999914 -3450.00000000033 -3479.99999999475 -3519.99999999656 -3289.99999998739 -3030.00000001161 -2659.99999999598 -2489.99999999261 -2710.00000000187 -2909.99999999977 -2909.99999999965 -3040.00000000013 -3110.00000000036 -3100 -3100.00000000115 -3129.99999999887 -2950.00000000687 -2350.00000000628 -2110.00000000118 -2120.00000000252 -2099.99999999943 -2149.99999999762 -2140.00000000057 -2089.99999999958 -2220 -2149.99999999698 -2179.99999999768 -2139.99999999797 -2259.99999999885 -2319.99999999919 -2600 -2639.99999999283 -2660.00000000094 -2799.99999999752 -2830.00000000066 -2789.99999999894 -2840 -2839.99999999355 -2709.99999999561 -2599.9999999977 -2559.99999999885 -2620.00000000105 -2700.00000000221 -2760 -2779.99999999943 -2869.99999999997 -2880 -2840 -2860.00000000227 -2899.99999999943 -2899.99999999943 -2919.99999999885 -2969.99999999941 -2890.00000000059 -2899.99999999823 -2989.99999999882 -2960.00000000179 -3019.9999999964 -3029.99999999757 -3009.99999999937 -3000.00000000115 -2869.9999999944 -2820.00000000172 -2769.99999999878 -2770.00000000065 -2610.0000000084 -2810.00000000372 -2840.00000000115 -2699.99999999594 -2760.00000000079 -2700.00000000138 -2820.00000000254 -2879.99999999688 -2789.99999999648 -2860.00000000257 -3029.99999999555 -2960.00000000461 -2919.99999999797 -2770.00000000131 -2839.9999999959 -2930.00000000189 -3000.00000000322 -2909.99999999867 -2809.99999999732 -2610.00000000001 -2139.99999999731 -1970.00000000636 -2090.00000000794 -2320.00000000273 -1939.99999999726 -1700.0000000055 -1129.99999996762 -720.000000032514 -879.999999996726 -779.999999998352 -760 -820.000000002819 -840 -779.999999998306 -640.000000001148 -289.99999999514 280.000000001728 349.999999999704 349.999999997402 450.000000005593 940.000000005269 1179.99999999936 679.999999993389 29.9999999936733 -319.999999995214 -399.999999998852 -290.000000004485 -310.000000007503 -169.999999998494 -240.000000004746 -289.999999998317 -360 -460.000000003058 -580.00000000307 -660.000000004229 -720.000000001148 -760 -800.000000001148 -880 -1210.00000000953
