NCOLS 240
NROWS 28
XLLCORNER -166
YLLCORNER 15
CELLSIZE 1 
NODATA_value -9999 
-4920 -4920 -4920 -4920 -4920 -4920 -4920 -4920 -4920 -4920 -4920 -4920 -4920 -4920 -4920 -4920 -4920 -4920 -4920 -4920 -4920 -4920 -4920 -4920 -4920 -4920 -4920 -4920 -4920 -4920 -4920 -4920 -4920 -4920 -4920 -4920 -4920 -4920 -4920 -4920 -4920 -4920 -4920 -4920 -4920 -4920 -4920 -4920 -4920 -3720.00000009735 -4520.00000000448 -759.999999966587 -5000.0000000015 -4800.00000000455 -4920 -5279.99999998321 -4920.00000001083 -4560.00000000464 -4840.00000002331 -5120.00000000468 -5120.00000000339 -5159.99999999397 -5120.00000000046 -5160.00000000477 -5280.00000000178 -5360 -5359.99999999634 -5200.00000000788 -5160.00000000978 -5519.9999999962 -5680 -5719.99999999611 -1359.99999999121 319.999999995964 640.000000007037 920.000000012051 1439.99999999904 1239.99999999699 960 679.999999997874 520.000000010323 600.000000003013 480.000000002194 440.00000000523 440 439.999999997738 400 439.999999991667 400 400 360 280.000000005411 320 359.999999997556 319.999999997533 319.99999999751 240 240.000000002535 200 200 159.999999997397 80.000000008265 160 199.999999997328 279.99999999128 240.00000000573 320 280 319.999999997215 280.000000005821 320 359.999999997146 360.000000005889 559.999999994316 560.000000008856 519.999999994111 400.000000020952 639.999999985005 359.999999996987 440.000000003013 320.000000015245 80.0000000060254 -80.0000000031036 -79.9999999998863 -159.999999996987 -120.000000003172 79.99999999078 120.000000006025 120.000000002785 119.999999993975 119.999999999727 0 -159.999999987949 -120.000000003354 -120 -119.999999993588 -120 -120.000000006889 79.9999999935198 199.999999989529 -120.000000003513 -120 -80.0000000030127 -160.000000006594 -840.000000048146 -1880.00000002773 -1159.99999999508 -1520.00000003342 -3400.00000001342 -3080 -2679.99999999325 -2720.00000000753 -3159.99999999475 -3760.00000001364 -2279.9999999406 -1039.99999999229 -80.0000000030127 -120.000000006912 -120 -119.999999996987 -79.9999999969873 -80 -80 -80 -120 -160 -160 -159.999999995873 -4.14956957683922e-09 159.999999993975 239.99999999161 519.999999998795 120.000000011494 240.000000003013 320.000000004286 360 400.000000007344 400 399.999999996987 320.000000007412 360 159.999999989529 159.999999996987 80 4.51336745720848e-09 4.53610482543439e-09 160 160 160.000000003013 199.99999999236 160 120 159.999999996987 160 160 199.999999996987 200 160.000000003013 159.999999996987 199.999999996987 159.999999987256 120.000000010914 199.999999993975 159.999999992053 160.000000001944 40.0000000079922 40 40 40 40 40 40 40 120.000000003013 240.000000005184 280.000000011232 360.000000003013 399.999999986483 240 199.999999989404 120.000000013654 159.999999996987 200 320 600.000000008424 440.000000005434 360.000000003013 440.00000000548 560.000000005502 880.000000008538 879.99999996877 680 520 600 680.000000008652 479.999999997351 360.000000003013 320.00000001744 400.000000020498 520.000000005753
-4920 -4920 -4920 -4920 -4920 -4920 -4920 -4920 -4920 -4920 -4920 -4920 -4920 -4920 -4920 -4920 -4920 -4920 -4920 -4920 -4920 -4920 -4920 -4920 -4920 -4920 -4920 -4920 -4920 -4920 -4920 -4920 -4920 -4920 -4920 -4920 -4920 -4920 -4920 -4920 -4920 -4920 -4920 -4920 -4920 -4920 -4920 -4920 -3600.00000001652 -4040.0000000133 -4400.00000001038 -1800.00000000003 -5039.99999996402 -4000.00000006213 -4040.00000001196 -4560 -4519.99999998921 -4240.00000000052 -4640.00000001227 -5159.99999998936 -4999.99999999831 -5079.99999999358 -5160 -5000.00000000721 -4400.00000000366 -4560.0000000203 -5039.99999999817 -5000.00000000783 -5279.99999999589 -5520 -5679.99999999808 -5480.00000000598 -5719.99999999701 79.9999999870397 159.99999999701 360 1119.99999999103 1520 879.999999992804 680 600 680 600.00000000299 480.00000000299 440 399.99999999701 440 400 400.000000002331 360 399.999999997624 320.00000000598 320 240.000000005434 240 319.99999999452 439.999999994975 400.000000005525 360.000000005548 320.00000000299 239.999999997397 80 120.000000005639 120.000000005662 200 200.000000002717 279.99999999402 320 240.00000000299 319.999999997192 399.999999991348 439.99999999701 680 519.999999991303 320.00000002093 479.999999996964 360.000000006003 399.99999997907 239.99999999701 239.999999993975 159.999999993952 -3.08091330225597e-09 -200.000000006094 -160.000000003126 -160.000000006139 -159.999999990666 -40 -40.0000000059799 -200.00000000299 -199.999999996737 -119.99999999701 -79.9999999937017 -79.9999999996589 -159.999999993656 -40.0000000093564 -159.999999996601 -40 -79.99999999701 -80.00000000299 -80.00000000299 -79.9999999964871 -80 -40 -80 -240.000000014415 -560.00000002201 -240 -600.00000002434 -2760.00000000528 -3000.00000001342 -2759.99999999925 -2359.9999999834 -3160.00000001355 -3520 -3879.99999998253 -2840.00000000047 -2279.99999988892 -239.999999986221 -159.99999999402 -119.99999999701 -119.99999999701 -80 0 -39.9999999959641 -79.9999999848342 -40 -39.9999999988859 -40.0000000071168 -7.13953340829754e-09 -1.18234311230487e-09 80.000000007185 119.999999991564 120.00000000299 120.000000004263 160 240 319.999999992679 320 400 400.000000014779 439.99999999701 400 239.999999995532 159.999999992519 0 119.999999992474 160 199.99999999701 199.99999999701 160.000000004627 120.00000000299 120 80.00000000299 80 120 120 160.00000000299 120 160 160 120.000000004866 199.999999990223 160 160.000000007924 159.999999995043 40 40 40.00000000299 2.98996383207867e-09 0 5.09317032954798e-09 40 40 120 199.999999994816 199.999999997783 239.99999999776 240 240.000000000705 120 80 80 120.000000008356 280 400.000000008401 359.999999986142 320 400 599.999999988995 520.000000011505 559.999999994452 399.999999994429 360 360 360 400.000000002672 399.999999991326 640.000000056798 240.00000001146 1760.00000000942
-4920 -4920 -4920 -4920 -4920 -4920 -4920 -4920 -4920 -4920 -4920 -4920 -4920 -4920 -4920 -4920 -4920 -4920 -4920 -4920 -4920 -4920 -4920 -4920 -4920 -4920 -4920 -4920 -4920 -4920 -4920 -4920 -4920 -4920 -4920 -4920 -4920 -4920 -4920 -4920 -4920 -4920 -4920 -4920 -4920 -4920 -4920 -4919.9999999972 -4040.00000000593 -3959.99999999976 -4759.99999998666 -4920.00000000149 -2160.00000012009 -4239.99999999836 -4080.00000000779 -4679.9999999988 -4800.0000000146 -5039.99999999378 -4839.9999999878 -4240.00000001559 -4279.99999999745 -4040.00000001984 -4359.99999999355 -4360 -3000.00000001959 -3160.00000001859 -4759.99999998927 -4960.00000000964 -5400.00000001047 -5480.00000000107 -5120.00000000593 -5040.00000002445 -5520.00000001977 -4999.9999997034 480.000000002967 599.999999999068 1000.00000000091 1160.00000000505 880.000000002967 639.999999994907 600.000000005116 640 759.999999994839 599.999999994816 440 439.999999995475 400 399.999999997692 399.999999994702 399.999999997033 399.999999992281 320 280.000000002421 279.999999994588 160.000000002467 280.00000000249 599.999999992917 319.999999997033 239.999999994475 119.999999997033 80 120.000000002626 199.999999997033 160.000000002672 240 240.000000002717 280.000000002967 360 280 359.999999997033 479.999999994338 1079.99999997946 639.999999996942 200.000000008697 319.999999991235 200.000000002967 79.9999999970328 39.9999999999773 0 -39.9999999969646 -39.9999999970328 2.9672264643058e-09 -120.000000000136 0 -40 -80.0000000059344 -199.999999997488 -1559.9999999028 -1159.99999993523 -119.999999997033 -400.000000009118 -839.999999956515 -1199.99999988439 -1959.99999999342 -2359.99999994945 -2399.99999996229 -2560.00000001094 -1279.99999989492 -79.9999999970328 -40 -40.0000000029672 -40 -40 -119.999999997033 -1319.99999997859 -639.999999997692 -519.999999976262 -639.999999986573 -3079.99999998074 -3319.99999997623 -3039.99999999703 -2399.99999999703 -3160.00000000839 -3640.00000000381 -3880.00000001446 -4400.00000000297 -4399.99999997947 -4239.9999999627 -2599.99999994765 -399.999999981219 -120 -79.9999999970328 80.0000000099476 119.999999995964 80 40.0000000111299 119.999999991792 39.9999999929059 -120.000000001182 -40 40 -79.9999999987494 0 40.0000000072305 160 160.000000002967 240 200.000000002967 360 360 240.000000004422 120.000000004456 80.0000000178375 40.0000000104251 119.999999997033 120 160.000000002967 239.999999995418 240 160 160 159.999999995339 119.999999998283 80 40 119.999999997033 160 160 200.00000000482 240.000000005934 199.9999999892 80.0000000068098 80 80 160 40 0 0 0 0 0 0 0 80.0000000051614 80.0000000029672 120.000000002967 120.00000000523 160.000000005252 200.000000002967 120 80 120.000000005343 199.999999991667 160.000000005934 200.000000008379 240 200.000000008424 360 400 519.999999994475 439.999999991485 360 359.999999997033 320.000000017167 360 559.999999997033 1959.99999990408 2080.00000002213 640.000000079808 560.000000008538
-4920 -4920 -4920 -4920 -4920 -4920 -4920 -4920 -4920 -4920 -4920 -4920 -4920 -4920 -4920 -4920 -4920 -4920 -4920 -4920 -4920 -4920 -4920 -4920 -4920 -4920 -4920 -4920 -4920 -4920 -4920 -4920 -4920 -4920 -4920 -4920 -4920 -4920 -4920 -4920 -4920 -4920 -4920 -4920 -4920 -4920 -4920 -3720.00000000265 -4239.99999998843 -4240.00000002789 -4040.00000000149 -4159.99999999702 -3919.99999995703 -4079.99999999781 -4640.00000000762 -4919.99999999569 -5080.00000000134 -4720.00000001015 -4719.99999999635 -4639.99999998034 -3839.99999991211 -3599.99999997744 -4160.00000001753 -4800.00000000294 -3999.99999999233 -3999.99999998228 -4360.00000001727 -4920.00000001439 -5120.00000000482 -3920.0000000282 -4320.00000001819 -5560.00000000194 -5679.99999999312 -3959.99999988564 200.000000002012 840.00000000407 1319.99999999205 1119.99999999792 759.999999997897 719.999999992804 599.999999994907 640.000000007287 760.000000008083 799.999999994839 600 400.000000002944 360.000000002944 320.000000002308 320 320 320 279.999999999454 199.999999997578 199.999999994611 280.000000003422 320.000000014722 359.999999994111 159.999999997465 80 80 159.999999994452 160.000000002626 240 200.000000000273 319.999999994361 439.999999988677 440 479.999999999818 599.999999997056 999.999999988086 680.000000023101 560.000000002853 160.000000005821 40.0000000058435 2.94448909677495e-09 40 0 -39.9999999970555 -40 -479.999999982515 -399.99999997633 -79.9999999969191 -40.0000000031036 -79.9999999939291 -80 -2480.00000001609 -3079.99999997569 -3079.99999998528 -3199.99999998822 -3520.00000000979 -3719.99999998754 -3840.00000001029 -3959.99999999194 -4159.99999997603 -3839.99999999073 -3199.99999997077 -3639.99999999021 -3359.99999995622 -1359.99999988027 -40 -40 -40 -1240.00000003092 -3160.00000000422 -3359.99999999249 -3559.99999999275 -3800.0000000073 -4000 -3679.99999999705 -3480.0000000155 -3119.99999999706 -2479.99999994944 -2400.0000000101 -3559.99999998944 -2760.000000005 -3919.99999999615 -3960.00000000977 -4080 -3999.99999998921 -3760 -3599.99999994675 -120 -80 0 79.9999999970555 40.0000000029445 159.999999988847 80.000000005889 1.41881173470476e-08 2.94448909668289e-09 -79.9999999928605 -80 -7.18500814369439e-09 2.94448909699002e-09 80.000000005889 160.000000007253 240.000000007276 319.999999997055 240.000000010266 -119.999999995532 -2079.99999994409 -3079.99999997644 -3040.00000000609 -3279.99999996606 -3319.99999999293 -3400.00000000318 -279.99999997616 159.999999990837 239.999999995396 160.000000007572 199.999999997056 120.000000004661 40.0000000029445 79.9999999970555 40 40.0000000076966 119.999999992281 200 40.0000000136538 39.9999999981014 40.000000005889 40 120 119.999999997055 199.999999997056 40 40 0 0 0 0 0 0 0 40.0000000207365 120.000000008151 160 159.999999991803 80 80 80 120 159.999999991689 120.000000005389 160 160.000000008379 200.000000008401 279.999999997055 240.000000005502 240.000000002944 280.000000014722 400.000000002626 280 359.999999994384 560.000000005639 1280.000000036 559.999999988836 799.999999988222 320.000000014563 799.999999982197
-4920 -4920 -4920 -4920 -4920 -4920 -4920 -4920 -4920 -4920 -4920 -4920 -4920 -4920 -4920 -4920 -4920 -4920 -4920 -4920 -4920 -4920 -4920 -4920 -4920 -4920 -4920 -4920 -4920 -4920 -4920 -4920 -4920 -4920 -4920 -4920 -4920 -4920 -4920 -4920 -4920 -4920 -4920 -4920 -4920 -4920 -4840.00000000584 -4000.00000001144 -4280.00000000142 -4839.99999999281 -4399.99999998246 -4239.99999999438 -4680.00000000282 -640.000000039574 -4120.00000002843 -4920.00000000608 -4880.00000001998 -5040.00000000617 -5040.00000001131 -4760.00000001378 -4640.00000001846 -4119.99999998882 -4080.00000002157 -3960.0000000058 -3920.00000000876 -3080.00000000738 -2920.00000001278 -3480.00000002095 -3720.00000002128 -4080.00000000774 -4880.00000002806 -5520.00000000097 -5520.00000000584 -5600.00000000783 359.999999980457 879.999999993008 1040.00000000206 1040 839.999999994975 680 680 680 680.000000005844 719.999999994861 520.00000000224 439.999999997738 360.000000002922 360 359.999999994748 320 279.999999995248 200.000000000523 160.000000002422 120 120 120.000000002922 80.0000000029217 80 80 119.999999997078 160.000000002603 160.000000002922 320 359.999999997078 639.999999991689 399.999999994361 400 560 1000.00000001434 879.999999974727 360.000000008765 199.999999997078 159.999999994202 40 0 0 -40 -1719.99999991581 -2559.99999999123 -2560.00000000303 -2639.99999999402 -2519.9999999974 -2760.00000000292 -3079.9999999877 -3559.9999999701 -3880.00000000342 -4359.99999999708 -4320.00000000029 -4439.99999998799 -4440.00000000034 -4520.00000000329 -4640 -4680.00000000333 -4599.99999999037 -4439.9999999937 -4239.99999996452 -4519.99999999073 -4239.99999997109 -2839.9999999792 -679.99999992541 -40 -320.000000005991 -3079.99999999873 -3559.99999999642 -3479.99999999123 -3560.0000000138 -3880.00000002848 -3919.99999999341 -3640.00000000739 -3399.9999999992 -2960.00000002291 -2239.99999997707 -2439.99999999588 -2799.99999996061 -3400.00000000273 -3399.99999999907 -3519.99999993876 -4000.0000000039 -3759.99999999216 -3800 -3559.9999999881 -3759.99999996836 -119.999999989052 -40 39.9999999930196 120 240.000000008208 239.999999998283 200 80 40.000000004195 79.9999999957822 1.03455022295702e-09 639.999999989654 720.000000008572 640.000000005843 720.000000008663 759.999999986824 799.999999999989 959.999999966348 -3040.0000000646 -4000.00000000152 -3479.99999999261 -3519.99999999708 -3560 -3520 -3480.00000000292 -3439.99999999708 -359.999999977422 279.999999992451 120 120 39.9999999953161 0 3.45451303317497e-19 40 0 0 0 -79.9999999767056 79.9999999922124 120 80 119.999999997078 80 79.9999999920988 0 0 0 0 0 0 0 0 79.9999999918941 80 160 80 80 80 80 120 120 160 160 240.000000045111 319.999999994156 320.000000000364 320 240.000000002922 279.999999997078 199.999999997078 719.999999960596 280.000000011232 440.000000013995 1879.99999996329 1319.99999999092 1440.00000002949 1240.00000000842 2239.99999998557
-4920 -4920 -4920 -4920 -4920 -4920 -4920 -4920 -4920 -4920 -4920 -4920 -4920 -4920 -4920 -4920 -4920 -4920 -4920 -4920 -4920 -4920 -4920 -4920 -4920 -4920 -4920 -4920 -4920 -4920 -4920 -4920 -4920 -4920 -4920 -4920 -4920 -4920 -4920 -4920 -4920 -4920 -4920 -4920 -4920 -4039.99999999401 -4159.9999999942 -4359.9999999986 -4439.99999999443 -4959.99999999421 -4759.99999992722 -4239.99999998676 -4200.00000001147 -5239.99999988677 -1679.9999998718 -5119.99999998814 -4639.9999999955 -4600.00000001265 -4880.0000000025 -4119.99999999062 -4760.00000003287 -5119.99999999473 -4919.99999999478 -4759.99999999545 -4039.99999997547 -4159.99999998441 -2560.00000004318 -2319.99999999976 -2920.00000002967 -4319.9999999942 -5440.00000000094 -5480.00000000099 -5640.00000000683 -5639.99999999312 1200.00000001763 119.99999999593 480 760.000000012039 1319.99999999 799.99999998995 600 560.000000002899 560.000000002194 679.99999999045 559.99999999776 480.000000005161 440.000000000614 439.999999997101 399.999999991871 319.999999994748 239.999999994725 120 159.999999997101 120.000000002899 80.000000005366 80 40.0000000054115 40.000000002899 40 160 119.999999994498 199.999999997374 240.000000011096 439.999999997101 400.000000002694 719.99999999402 1039.99999997486 719.999999994202 359.999999994429 280 239.999999997169 120.000000005753 40.000000002899 40 0 -40 -2240.00000000607 -2799.9999999942 -2999.99999999721 -3399.9999999913 -3560.00000000032 -3599.99999999148 -4079.99999997909 -4239.9999999971 -4280.0000000092 -4640.00000000317 -4680.00000000319 -4759.99999999388 -4800 -4799.9999999971 -4839.9999999971 -4879.99999999379 -4879.99999999377 -4879.9999999971 -4800 -4520.0000000005 -4599.9999999942 -4760.0000000029 -3680.00000004047 -2519.99999997971 -2439.9999999927 -2280.00000000834 -3040.00000001067 -3519.9999999913 -4120.0000000029 -4120.00000000073 -2360.00000007377 -3879.99999998319 -3520.00000002188 -3039.99999987964 -1279.9999999813 -3479.99999998754 -3919.99999999331 -3800.00000000091 -3840 -3879.99999998261 -3519.99999997391 -3759.99999998361 -3799.9999999942 -3640 -3399.99999998657 -3079.99999999601 -3720.00000001204 -239.999999985619 -39.9999999930424 80.0000000081627 479.999999998306 720.000000018178 719.999999972203 519.999999952126 280.000000004195 -39.9999999960437 600.000000001342 1279.99999998687 840.000000015632 1480.00000001731 920.000000015927 1519.99999999129 1120.00000001597 1159.9999999854 360.000000008697 159.999999994202 -3960.00000001473 -3639.99999999261 -3480 -3680 -3599.99999998964 -3480.00000000458 -3480 -1599.99999988477 5.79802872312876e-09 40 0 -80.0000000018076 -1.83035808697536e-09 120 119.999999992326 0 4.82032191904744e-09 40 79.9999999951342 199.999999997101 320.000000029468 479.999999994202 160.000000015711 40 0 0 0 0 159.999999988404 3.70777247228401e-19 0 160.000000002899 159.999999997101 160.000000002899 160 199.999999975546 80 80 80 119.999999997101 160 199.999999997101 200 200 200.000000002899 320.000000013858 919.999999979707 360.000000005252 1239.99999994517 879.999999965212 1639.99999994492 1680.00000000851 840.000000017076 1760.00000000539 2399.9999999884 2399.9999999913 2439.9999999884 2359.9999999942
-4920 -4920 -4920 -4920 -4920 -4920 -4920 -4920 -4920 -4920 -4920 -4920 -4920 -4920 -4920 -4920 -4920 -4920 -4920 -4920 -4920 -4920 -4920 -4920 -4920 -4920 -4920 -4920 -4920 -4920 -4920 -4920 -4920 -4920 -4920 -4920 -4920 -4920 -4920 -4920 -4920 -4920 -4920 -3759.99999999399 -4079.99999999867 -4280 -4440.00000000713 -4719.99999999572 -4600.00000001286 -4879.99999998704 -4679.99999999718 -4160.00000000139 -3480.00000002511 -4840.00000000019 -5160.00000000467 -5200.00000000762 -4799.99999999646 -4599.9999999955 -4160.00000001729 -4920.00000000455 -5200.00000000339 -5600 -5599.99999999364 -5479.99999999536 -5479.9999999878 -4999.99999999277 -4799.99999997594 -3599.99999997309 -4640.00000000375 -4719.99999996847 -5640.00000000576 -5640.00000000194 -5839.99999999031 -4559.99999998209 600.000000004025 279.999999984425 240.000000006992 919.999999981457 1520 1040.00000001075 680 679.999999997829 599.999999997806 520.000000005093 559.999999994884 480.000000002262 440 360 319.999999997669 160.000000008106 160 120 80.0000000052978 119.999999994679 120.000000002876 79.9999999975102 80 40 120 160 119.999999997397 40.0000000081286 240.000000002876 399.999999997328 320.000000005752 320.000000002876 200.000000002876 199.999999997124 120.000000005753 159.999999991508 80.0000000028763 80 40 40 -79.9999999884039 -1960.00000000877 -3079.99999999146 -3439.99999999137 -3920.00000000315 -4080.00000000895 -4119.9999999973 -4439.99999999712 -4559.99999999712 -4639.99999999687 -4640.00000000027 -4760 -4799.9999999968 -4799.99999999425 -4720.00000000936 -3840.00000014772 -4959.99999999137 -4920 -4959.99999999712 -4960.00000000287 -4920 -4839.9999999966 -4799.9999999937 -4839.99999999137 -4599.99999998731 -4119.99999998891 -2600.00000000064 -2879.99999999359 -3400.0000000078 -3920 -4079.99999999352 -4039.99999999637 -3919.99999999635 -3640.00000000655 -3280.00000001602 -2919.99999992937 -3160.00000000432 -3720.00000000376 -4239.99999995428 -4280.00000000567 -4479.99999998274 -4279.99999999327 -4240 -3600.00000000274 -1719.99999999843 -200.000000008629 -960.000000128148 -3360.00000000399 -2959.99999996963 -959.999999942338 -79.9999999930651 159.999999998795 280.00000000698 599.999999998374 960.000000009572 199.999999993236 200.000000001558 1639.99999998294 1599.99999994351 199.999999995737 40 80.0000000043087 40.0000000129603 40 280.000000028888 480.000000013028 279.999999997124 160.000000004445 120 -3560.00000004708 -3519.99999999261 -3480 -3639.99999999712 -3600 -3639.99999999425 -3519.99999999712 -3480.00000000465 -3439.99999986521 -3480.00000002301 -3879.99999984939 -1559.99999976442 -239.999999992372 -239.999999997124 -39.9999999942361 -1479.99999988783 -160 480.0000000721 599.999999979582 720.000000054865 959.999999973693 280 120 40 0 0 0 0 -79.9999999971237 120.000000011505 119.999999994839 240.000000002308 200.00000001329 159.99999999477 120 80 79.9999999971237 80 120.000000005343 479.999999972783 319.999999997124 200.000000002876 200.000000005434 160.000000002876 400.000000002603 1920.00000007803 2320.00000001703 1720.00000000657 1200.00000004799 1800.00000001119 1720.0000000115 1920.00000000011 1640.00000000009 2240.00000002274 1760.0000000116 960.000000005798 560.000000014381
-4920 -4920 -4920 -4920 -4920 -4920 -4920 -4920 -4920 -4920 -4920 -4920 -4920 -4920 -4920 -4920 -4920 -4920 -4920 -4920 -4920 -4920 -4920 -4920 -4920 -4920 -4920 -4920 -4920 -4920 -4920 -4920 -4920 -4920 -4920 -4920 -4920 -4720.00000001427 -4920 -4920 -4760.00000001141 -3999.99999999874 -4120.00000001113 -4080.00000001403 -4319.99999998592 -4520.00000001412 -4000.00000002339 -5039.99999999563 -4640.00000001424 -4840.00000000289 -4880.00000000717 -3919.99999998821 -3960.00000000756 -4880.00000000746 -4879.9999999782 -1399.99999993015 -4080 -3960.00000001181 -4759.99999998529 -5000.00000000188 -5479.99999999322 -5600 -5640 -5640 -4920.0000000232 -5480.00000000466 -5199.99999999715 -4999.99999998858 -5519.99999999715 -5479.99999999335 -5480.00000001718 -5760 -5800 -5720.00000000484 -5799.99999998591 759.99999998779 -39.9999999979423 240.00000002675 1679.99999999925 1239.99999997443 599.999999997146 520 440 440.00000000507 519.99999999776 440.000000002854 320.000000002853 200.000000005707 200.000000005184 160 119.99999999477 119.999999997601 80 40.0000000028535 40 40.0000000028535 40 119.999999997146 119.999999997442 80 79.9999999973966 79.9999999971464 80.0000000028535 159.999999997328 239.999999997146 160 120.000000002854 80.0000000028535 80 40 40 2.85353962681272e-09 0 -39.9999999971465 -2719.99999989707 -3159.9999999827 -3839.99999999441 -4079.99999999429 -4160.00000000016 -4240.0000000116 -4320.00000000306 -4520.00000000856 -4800 -4760 -4680 -4760 -4720.00000001529 -4760.00000000285 -4800 -2480.00000010605 -4840.00000000657 -4919.99999999669 -4960 -4920.00000000285 -4880.00000000623 -4959.99999999144 -4759.99999999658 -4640.00000002745 -4159.99999999613 -3599.99999999778 -3120.00000002832 -2960.0000000072 -3120.00000001497 -3840.00000000358 -3999.99999999715 -3920 -3800.00000000285 -3519.99999999633 -3159.99999999916 -3239.99999999516 -2040.00000014938 -4000.00000000753 -4239.99999999808 -4440.00000000762 -4760 -2840.0000000809 -1719.99999999736 -2120.00000000514 359.999999982526 639.999999979604 839.999999967986 1000.0000000154 799.999999988495 279.999999968406 -279.999999969498 -39.9999999530814 200.000000002854 719.999999981912 319.999999994554 -40.0000000070258 -199.999999993122 880.000000053592 -159.99999986228 -79.9999999872102 159.999999997146 39.9999999971465 7.18500814369754e-09 -40 79.9999999971464 159.999999998454 119.99999998987 320.000000011414 120 -840.000000117552 -2160.00000017681 -3559.99999999261 -3480 -3520.00000000744 -3640.00000000285 -3680 -3719.99999999715 -3680 -3559.99999999532 -3560 -3560 -3560 -3560 -3600 -3599.99999999715 -3480 -2319.9999997288 -200.000000002854 519.999999913791 519.999999986505 519.999999951638 1319.99999994651 759.999999990769 679.999999967122 0 0 0 0 80.0000000102773 80 200 80.0000000052068 80 80 80 159.999999983697 159.999999991826 120.00000001105 199.999999997146 479.999999989222 200.000000002854 240.000000005434 280.000000002853 359.999999991667 1040.00000002038 520.000000003581 80.0000000030127 480.000000016848 1200.00000001415 1240.00000001694 1200 1199.99999998582 839.999999997146 599.999999994293 679.999999988563 719.999999994293
-4920 -4920 -4920 -4920 -4920 -4920 -4920 -4920 -4920 -4920 -4920 -4920 -4920 -4920 -4920 -4920 -4920 -4920 -4920 -4920 -4920 -4920 -4920 -4920 -4920 -4920 -4920 -4920 -4920 -4920 -4920 -4920 -4920 -4920 -4920 -3120.00000010586 -3599.99999999885 -3559.99999999551 -3559.99999999956 -3600.00000001539 -4199.99999999876 -4360.00000000945 -4560.00000000464 -4559.99999998302 -4280.00000002681 -4560.0000000016 -4839.9999999945 -4679.99999999007 -5039.99999998164 -4960.00000000993 -4959.9999999956 -4040.00000000283 -4600.00000001132 -4560.00000000979 -4799.99999999533 -2879.99999999611 -3480.00000001613 -3960.00000001138 -4560.00000000165 -5079.99999999833 -5599.9999999983 -5600 -5640 -5640.00000000176 -5680 -5559.99999999819 -5560.00000000366 -5479.99999999532 -5559.99999999717 -5480.00000001705 -5719.99999999717 -5800 -5720.00000000086 -5799.99999999801 -5639.99999999396 -40.0000000028308 559.999999962699 40.0000000041609 960.000000001375 1199.99999999504 759.999999997169 680 400.000000000637 280.000000002831 280.000000002831 160.000000005093 160 120.000000002831 120 40.0000000051841 40 40 40 0 0 40 40 40 40 40 40.0000000026034 80.0000000026262 80.0000000054797 119.999999997328 119.999999997306 80 80 40 40 0 0 -40.0000000000227 -439.999999991553 -3119.99999998578 -3680.0000000031 -4120 -4479.99999999151 -4319.99999999135 -4599.99999999133 -4919.99999999151 -4840.00000000023 -4879.99999999126 -4840 -4520 -4680.00000000598 -4720.00000000034 -4680 -4560.00000000849 -4799.99999997046 -1360.00000030684 -4720.00000003296 -4760 -4800.00000000333 -4919.99999998711 -4800.00000000283 -4759.99999999943 -4760 -4680.00000000627 -4679.99999999717 -4680.00000000283 -4560.00000000068 -4039.99999999717 -3519.99999998366 -3480.00000000641 -3680 -3680.00000000283 -3639.99999999635 -3399.99999999266 -3039.99999997908 -2800.00000001098 -3320.00000008067 -3759.99999994445 -4319.99999999151 -4600.00000000381 -4800.00000000383 -4159.99999995273 -3039.99999998689 -2599.99999998761 200.00000001221 839.999999946999 760.00000003339 559.999999993179 520.000000011323 439.999999989518 279.999999995941 600.000000014154 2039.99999995938 599.999999965451 40.0000000592195 559.999999948295 479.999999924387 -2400.00000000065 -3759.99999997879 -40 -39.9999999971692 80 120.000000005832 -3.08147396395912e-19 -39.999999995623 -7.23048287878382e-09 119.999999989916 119.999999992724 479.999999982572 -840.000000097623 -80.0000000118575 -1240.00000029014 -3879.99999998978 -3519.99999999717 -3480 -3480 -3480.00000000465 -3559.99999999251 -3480 -3480 -3319.99999999051 -2280.00000009908 -2320.00000011057 -3599.99999999151 -3480 -3480 -3480 -160.000000059447 -160 -160 -160 640.00000011081 440.000000055957 1160.00000002611 359.999999989905 0 40.0000000050932 80 80.0000000051386 79.9999999971692 199.999999994816 199.999999994793 160 159.999999983834 160 160 160 160.000000008174 160.000000008197 200.000000005389 400.000000021646 959.999999987665 159.999999989086 280.00000003306 799.99999998804 880.000000024795 1199.99999998868 920.000000008401 719.999999997237 639.999999985937 679.999999994361 640.000000008492 640 720.000000022783 800 800.000000011505
-4920 -4920 -4920 -4920 -4920 -4920 -4920 -4920 -4920 -4920 -4920 -4920 -4920 -4920 -4920 -4920 -4920 -4920 -4920 -4920 -4920 -4920 -4920 -4920 -4920 -4920 -4920 -4920 -4920 -4920 -4920 -4920 -4920 -4920 -3159.99999999549 -3479.99999998371 -3839.99999999655 -3999.99999999158 -3520.00000003918 -4119.99999998483 -4360.0000000019 -4799.99999999621 -5079.99999998082 -4999.99999998427 -5080.00000000266 -5160.00000000697 -4920.00000002103 -4520.00000001399 -4640.00000000014 -4920 -4719.99999999987 -3720.00000000693 -3560.00000003305 -4599.99999998442 -4399.99999999096 -3520.0000000014 160.000000001205 -3879.99999999645 -4200.00000001667 -4960.00000000896 -5560.00000000281 -5600 -5640 -5639.99999999824 -5520.00000000459 -5560.00000000181 -5680 -5560.00000000185 -5519.99999999251 -5680.00000000751 -5680.00000000473 -5720.00000000021 -5720.00000000955 -5600.00000000643 -3280.00000006458 -4839.99999997888 280.000000007674 -399.999999968588 480.000000015427 1919.99999999787 880.000000000659 680 399.999999992804 240 160.000000002808 120 80 79.9999999971919 40.0000000004775 40 -2.37605490821511e-09 -1.68399109314184e-19 -39.9999999971919 -40 -39.9999999947249 0 0 0 39.999999994634 -2.58069121609966e-09 -5.20685716746754e-09 -79.9999999945658 2.80806489172408e-09 80 79.9999999973056 80 40 0 -2.78532752398422e-09 -479.999999977535 -559.999999997237 -799.99999999153 -2239.99999997747 -3599.99999999176 -4440.00000000011 -4800.00000000308 -5000.00000000016 -5120.00000000299 -5200.00000000342 -5120 -5079.99999999694 -4960 -4919.99999999409 -4680.00000000313 -4559.99999999404 -4160.00000002564 -4520.00000000562 -4440.00000000562 -4240.00000000648 -4400.00000001214 -4600.00000001547 -4480.00000000511 -4839.99999999386 -4680.00000000616 -4799.99999999381 -4719.9999999966 -4720 -4600.00000000625 -4559.99999999521 -4560 -4400.00000000632 -4359.99999999366 -3839.99999996892 -3240.00000000077 -3439.99999999719 -3400 -3440.00000000281 -3199.99999997775 -3200.0000000065 -2879.99999999727 -2960.00000005336 -4079.99999999528 -4480.0000000011 -3400.00000019127 -4760.00000001047 -5160.00000000281 -4519.99999999118 -2680.00000000905 320.000000015109 719.999999974125 319.999999996032 80.0000000107889 80.0000000084242 120.00000002492 80.0000000171553 -39.9999999890292 79.999999998704 280.000000008424 80.0000000472369 120.000000004411 -3559.99999998017 -4119.99999999859 -3520.00000000281 -3480 -7.09405867352836e-09 -159.999999998693 0 -7.16227077615654e-09 -119.999999992815 -40 -3.10460917171647e-19 80.0000000173145 319.999999995532 -1440.00000010216 439.999999987563 -160 -160 -1000.00000015341 -1120.00000016006 -240.000000070202 -160 -160 -160 -80.000000002808 -80.000000002808 -79.9999999971919 -119.999999997192 -159.999999997192 -160 -160 -160 -160.000000004889 -3479.99999994945 -3480 -3480 -3480 -3480 -199.999999992167 -360.000000030889 640.000000013415 79.9999999971919 80.000000002808 120.000000002808 160 160.000000002808 280 160 160 160 239.999999994384 160.000000016257 239.999999997192 239.999999991826 200 200.000000002808 480 1479.99999994199 1880.00000002233 1839.99999998361 1039.99999999176 639.999999997192 399.999999997237 280.000000025204 319.999999997192 320 319.999999994338 400.000000005684 560 480.000000002808 480.000000002808
-4920 -4920 -4920 -4920 -4920 -4920 -4920 -4920 -4920 -4920 -4920 -4920 -4920 -4599.9999999975 -3560.00000008978 -4920 -4920 -4920 -4920 -4920 -4920 -4920 -4920 -4920 -4920 -4920 -4920 -4920 -4919.99999998414 -4920 -3280.00000000582 79.9999999130978 -3160.00000000106 -3040 -2520.0000000123 -3719.99999999609 -3920.00000001393 -4080.00000001684 -4439.99999999602 -4320.00000000294 -4520.00000000185 -5039.99999998076 -4959.99999999978 -4960.00000000148 -4959.9999999931 -4919.99999999308 -5000.00000000144 -4400.00000000418 -4880.00000000699 -4760 -4360.00000000557 -3239.99999998957 -3399.99999998377 -4559.99999997993 -4119.9999999882 -3479.99999999842 599.999999982788 -4080.00000001509 -4320.0000000133 -4999.99999999554 -5440.00000001005 -5400.00000001522 -5639.99999999547 -5639.99999999295 -5480.00000000635 -5680.00000000278 -5679.99999999538 -5400.00000000463 -5719.99999999534 -5719.9999999981 -5320.00000000432 -4880.00000000641 -1360.00000002295 -4879.99999998806 -4720.00000000278 -4680.0000000076 399.999999982685 519.999999993724 -119.999999990905 1440.00000001818 1239.99999999721 720 679.999999995612 279.999999992781 160 80.0000000027853 40 39.9999999976922 -39.9999999972147 -119.999999994861 -479.999999999591 -1079.99999999404 -1040.00000000279 -640.000000001023 -439.999999991962 -399.999999976114 -80.0000000025125 -40.0000000050704 -479.999999988631 -1520.00000002581 -1240.00000000018 -359.999999994588 -39.9999999945658 0 0 40 40 0 -440.000000002785 -800 -879.999999997169 -2240.00000000313 -2799.99999999749 -3000.00000004292 -4760.00000000571 -5119.99999999443 -5159.99999999703 -5160 -5160 -5120 -4960.00000000278 -4760.00000000278 -4759.99999999968 -4399.9999999784 -4480.00000000557 -4440 -4160.00000000475 -3760.00000003001 -3920.00000000881 -4280.00000000931 -4559.99999998257 -4400.00000003204 -4440.00000001114 -4679.99999999664 -4600.00000000338 -4560.00000000836 -4560.00000000899 -4639.99999998754 -4480 -4359.99999999721 -4159.99999999927 -4039.99999998232 -3920.00000000913 -3720.00000001114 -3880.00000000442 -3599.99999998439 -3279.99999999741 -2919.99999999152 -2919.99999999073 -4039.99999996284 -4199.99999994214 -4560.00000000474 -3640.00000003764 -3359.99999990183 -3759.99999998327 -4640.00000000084 -4519.9999999312 -80 359.999999989882 160.000000019031 -39.9999999436909 359.999999929753 -360.00000001794 -319.999999952251 679.999999949307 320.000000024875 39.9999999945771 80.0000000207365 1.07036157710284e-07 -3440.00000001803 -4079.99999999859 -3480.00000000278 -3480 -3480 -3479.99999999293 -40 -119.999999985766 200.000000001569 -40.0000000043769 -40.000000007185 -679.999999995578 -360.000000025011 40.000000016189 -2040.00000006287 0 279.999999987108 39.9999999954412 2.78532752417975e-09 120.000000010175 79.9999999740339 -79.9999999897795 -39.9999999953388 -120 -160 -120 -120 -120.00000000756 -80.0000000027853 -159.999999997215 -2599.99999992091 -3480 -3480 -3480 -3519.99999999721 -3599.99999999721 -3600 -3600 -3600 -3560.00000000278 -3480 -3479.99999999721 -2399.99999980542 -39.9999999785814 80.0000000103228 79.9999999948159 40 120.0000000108 160.000000008038 160 160.000000002785 239.999999991894 200.000000008129 200 200.000000002785 200.000000002785 400 880.000000000227 479.99999997799 239.999999991712 399.999999983379 280.000000002785 199.999999994429 120.000000008356 200 240 240.000000002785 280 280.000000008356 400.00000001146 359.999999991462
-4920 -4920 -4920 -4920 -4920 -4920 -4920 -4920 -4920 -4920 -4920.00000000552 -5080 -3120.00000001638 -4680 -4240.00000000975 -4359.999999985 -4119.99999998274 -4840.00000000696 -4920 -4920 -4920 -4920 -4920 -4920 -4920 -4920 -4599.9999999604 -3040.0000000186 -3799.99999999075 -3840 -3839.99999999622 -3679.99999999654 -3519.99999999512 -3239.99999999892 -2960 -3000.00000002568 -4199.99999999218 -4280.00000000159 -4319.99999998581 -4200.00000000796 -4319.99999998952 -4600.00000000576 -4959.99999999447 -4959.99999999593 -5080 -4880.00000000823 -5159.99999997104 -4560.00000000423 -4639.99999997718 -4639.99999999711 -4200.00000000293 -3399.99999998681 -3959.99999997863 -4279.99999998619 -3920.0000000328 -2000.00000000394 -3599.99999998226 -2720.00000002259 -4359.99999998948 -4560.00000001548 -5320.00000000891 -5560.00000000276 -5639.99999999478 -5599.99999999547 -5480.00000000909 -5679.99999999819 -5679.99999998808 -5279.99999999906 -5199.99999999161 -5080 -4999.99999998871 -4720.00000000051 -4399.99999999447 -4480.00000000519 -4799.99999998291 -4599.99999998503 -4360.00000001153 400.00000000208 -4.35772317624909e-19 640.000000015518 1879.99999999294 1160.00000000434 880.000000004957 439.999999985062 40 0 -39.9999999972374 -40 0 -120.000000009823 -960.000000007514 -1639.99999999724 -2200.00000000379 -1360.00000000149 -1720.00000000829 -1720.00000001661 -1639.99999999975 -1999.99999998066 -1879.99999999427 -2599.99999999964 -2919.99999999724 -999.999999972647 -160.000000002763 0 0 40 40 0 -720.000000005548 -799.999999994429 -800 -3359.99999998342 -3919.99999999735 -3400 -4840.00000000276 -5199.99999999135 -5200 -5160.00000000276 -5160.00000000628 -4999.99999999696 -4879.99999999112 -4719.99999996186 -3600.00000012217 -4200.00000000203 -3920.00000001497 -3840.00000003561 -3080.00000014487 -3800.00000002899 -3920.00000000085 -4279.99999997816 -4320.00000003681 -3319.99999988684 -4440.00000003104 -4679.99999999605 -4519.99999999724 -4719.99999997811 -3119.99999995724 -3680.00000005375 -3800.00000002216 -3920.00000002152 -3959.9999999867 -3679.99999998972 -3559.99999996287 -3280.00000001074 -2120.0000000412 -3279.99999999654 -2639.99999995344 -2720.0000000193 -3119.99999995487 -2920.00000005089 -4000.00000001496 -4079.99999997842 -4439.99999997524 -3520.00000001247 -4399.99999999617 -4440.00000000109 -4519.99999988722 80.0000000177124 160 120.000000006707 1.3812950782081e-08 39.9999999957026 -2.03272065837946e-08 -160.000000001273 -200.000000006992 -119.999999998681 -319.999999987608 -240.000000016507 -1559.99999999866 -4159.99999999859 -3480.00000000276 -3480 -3480 -3480 -3480 -3480 -40 1.59161572840344e-09 79.9999999884835 39.9999999928377 -760.000000035379 -519.999999972249 -680.000000025102 -1480.00000010535 -39.9999999972374 200.000000011835 4.55884219263706e-09 39.9999999944748 -4.60431692804371e-09 4.62705429527003e-09 -40.0000000074124 -200.000000100647 -199.999999997237 -199.999999991712 -160 -160 -160 -3439.99999997717 -3480 -3480.00000000484 -3560 -3679.99999998959 -3680 -3560.00000000553 -3520 -3520 -3480.00000000276 -3560.00000000276 -3599.99999999724 -3560 -3560.00000000233 -3600.00000000512 -3639.99999999724 -3640 -3640 -3480 -3480 40.0000000160298 80 119.999999997237 119.999999997442 80.000000013631 240.000000005366 160.000000010914 120.000000008174 119.999999989132 39.9999999944748 39.9999999944748 -79.9999999862325 -40 0 0 1.39493749872842e-08 1.67574398797793e-08 199.999999994361 160.000000008424 200 240 280 280
-4920 -4920 -4920 -4920 -4920 -4920 -4960.00000000145 -4960.00000002162 -5279.99999999452 -5120.00000000875 -4920.00000000163 -4879.99999999236 -4999.99999999605 -1600.00000008883 -4440.00000000533 -4120.00000000408 -5520 -3999.99999999452 -3800.00000000548 -3600.00000000076 -3879.99999999256 -3720.00000006962 -3839.99999999452 -3959.99999999196 -4119.99999999825 -4200.00000000184 -4159.9999999991 -4120.00000000094 -3959.9999999892 -4000.00000001195 -3760.00000000649 -3959.99999996511 -3719.9999999962 -3360.00000000108 -3319.99999998957 -2839.99999999951 -4239.99999998789 -4199.99999999412 -4279.99999999452 -3480.00000008277 -4360.00000000398 -4600.00000000209 -4760.00000000128 -4999.99999999869 -5040.00000000133 -4999.99999998772 -4559.99999999452 -4560.00000002052 -4600 -4480.00000000274 -3839.99999998425 -3119.99999999827 -3840.00000001124 -4200.00000000789 -2960.00000001762 -2640.00000001928 -3680.00000000274 -3560.00000000274 -4320.00000001042 -4759.99999999452 -5040.00000000339 -5040.00000000545 -4360.00000000822 -4880.0000000182 -4960.00000000178 -5279.99999999726 -5200.00000000274 -5159.99999999081 -5040.00000000274 -5119.9999999962 -4879.99999999231 -5080.00000000035 -1880.00000017336 -4640.00000000623 -4720.00000000402 -4759.99999998567 -4720.00000002055 -4399.99999999046 320.000000014529 -80.0000000054797 1440.00000002718 1799.99999997818 1479.99999999671 799.999999982913 79.9999999950205 0 -40 -40 -120 -440.000000001967 -1839.99999999435 -3160.0000000024 -3240.00000000421 -3199.99999999452 -2800.00000000027 -2879.99999996861 -3079.99999998904 -2799.99999999472 -2319.99999999708 -2520 -3079.99999998918 -3159.99999998893 -359.999999992053 -40 0 79.9999999972601 40 -40.0000000000227 -800 -919.99999999726 -1080 -4720.00000005011 -4719.99999997753 -4319.9999999971 -3800.00000002045 -5040.00000000842 -5199.99999999703 -5159.99999999726 -5159.99999999178 -4880 -4719.99999999694 -4519.99999999966 -4240.00000000036 -3479.9999999413 -3919.99999999137 -3759.99999999769 -3879.99999999452 -3840.00000000178 -3920.00000000274 -3800.0000000137 -3640.00000000109 -4160.00000005764 -4479.99999999726 -4359.99999999726 -4360.00000000949 -4200.00000000548 -4240.00000000138 -3800.00000000955 -3639.99999999105 -3679.99999997583 -2080.00000000099 -3119.99999999885 -2160.00000002113 -3039.99999998988 -3319.99999997549 -3519.99999994633 -3800.00000000912 -4119.99999999452 -4320.00000003122 -4559.99999999824 -3760.0000000157 -1640.00000014891 -1359.9999999868 -3640.00000002345 -4639.99999999617 -4679.99999999726 -2519.99999999819 -79.9999999922011 160.00000000548 320.00000001063 240.000000010959 359.999999982549 119.999999994714 80.0000000041837 -199.999999993202 279.999999990439 -560.000000032867 -4080.00000000139 -3800.00000000407 -3480 -3480 -3480 -3480 -3480 -3480 -3480 -3279.99999967365 -40 8.21955836757311e-09 -79.9999999961801 40.0000000071623 -799.999999967179 1.01181285511037e-09 40.0000000027398 -2239.99999993375 -79.999999980912 5.47970557786994e-09 239.999999970714 159.999999990791 200.000000007367 80.0000000038199 -39.999999992599 -160 -160.000000012926 -3080.00000003412 -3440.00000000822 -3560.00000000274 -3639.99999999726 -3519.99999999244 -3480 -3480 -3480.00000000489 -3520 -3639.99999999726 -3640 -3520.00000000822 -3120.00000003014 -1440.00000010958 -320.000000063017 -160.00000001055 -160 -80 -80 -79.9999999996817 -159.99999999452 -80 -79.9999999920305 0 -79.9999999917804 -39.9999999947022 0 40.0000000106866 79.9999999918941 40 40 -40 -119.999999983606 -79.9999999945203 -120 -80 -80 -80 -79.9999999916667 40.0000000027398 40.0000000027398 119.999999994338 160 160 200.00000000548 280
-4920 -4920 -4960.00000000037 -4960.00000000775 -4880.00000000084 -4920.00000001042 -5159.99999998866 -5119.9999999869 -5279.99999999134 -4960.00000001572 -4919.99999999721 -4600.00000001377 -4679.99999999819 -1359.99999996237 -4880 -4200.00000000131 -4719.99999999867 -4080.00000000086 -4319.99999999802 -4199.99999999804 -4399.99999998485 -4200.00000000543 -4159.99999999917 -3959.99999997858 -4639.99999998913 -4279.99999999546 -4320.00000002266 -4160.00000003627 -4279.99999999632 -4280.00000000716 -4199.99999999728 -4159.99999999793 -3399.99999999216 -3519.99999999296 -3480 -3239.99999999569 -4079.99999999927 -4239.99999999457 -4240.00000000272 -4359.99999999063 -4399.99999999852 -4600.0000000067 -4600 -4720 -4880.00000000399 -4560.00000003121 -5559.99999994528 -4320.00000000683 -4399.99999999716 -4200.00000000832 -3719.99999999728 -3439.99999999159 -2919.99999999034 -3400.00000000508 -1720.00000005825 -3360.00000003843 -4359.99999997617 -4159.99999999027 -3559.99999998147 -3959.99999997032 -4799.99999999118 -4839.99999999628 -4759.99999999902 -4800.00000000624 -4960.00000001902 -4999.9999999955 -5119.99999998819 -5040.00000000185 -4920.00000000187 -4960.00000000082 -4919.99999999072 -4839.99999998367 -4359.99999998108 -4680.00000000272 -4760.0000000007 -4919.99999999728 -4720 -5079.99999999456 1079.99999992656 -399.999999992087 520.000000039938 1640.00000000706 1560.00000000491 1159.9999999862 199.999999997283 40 -40 -159.999999997283 -639.999999996896 -1919.99999999655 -2760.00000002003 -3440.0000000024 -3520.00000000786 -3479.99999999728 -3440 -3319.99999998664 -3479.99999997575 -3399.99999999493 -3239.99999999457 -2959.99999999457 -2919.99999999728 -3240.00000000263 -239.999999997351 -40 -1.07775122154607e-08 40 40 -120.000000022101 -600.000000011005 -1040 -1119.99999998619 -4800.00000000272 -4760.00000000272 -4399.99999999692 -4279.99999999144 -4800.00000002265 -5159.99999999703 -5279.99999999157 -4999.99999999155 -4839.99999999696 -4759.99999999422 -4440.00000000235 -4319.99999998059 -4039.9999999856 -4039.99999996079 -4040.00000000543 -3760.00000001821 -3880.0000000178 -4120.00000001902 -4279.99999997716 -4239.99999995583 -4519.99999999669 -4400.00000002086 -4280.00000000942 -4159.99999999391 -4119.99999998572 -3559.99999999305 -1480.00000007341 -2720.00000003636 -3040.00000001087 -1759.99999999649 -2239.99999992392 -3320.00000001676 -3879.99999998654 -3719.99999998647 -4000.00000000454 -4199.99999995272 -4160 -4199.99999998696 -4000.00000000958 -2520.00000004929 -1679.99999994043 -4279.99999996526 -3479.99999994347 -2719.99999990387 -4199.99999993207 -3319.99999996584 -599.999999956879 -519.999999983697 -39.9999999906208 -39.9999999893475 160.000000017576 -239.999999989131 -80.0000000121872 -279.99999998239 -480.000000001364 -4239.9999999959 -3640.00000000402 -3480 -3480 -3480 -3480 -3480 -3480 -3480 -3480 -3480 159.999999978786 -40 5.43423084309355e-09 -2320.00000000442 -840.000000012346 40.0000000153363 -39.9999999927922 -39.9999999972829 -1640.00000006164 -1399.99999995556 -1239.99999997555 -1120.00000000189 359.999999962472 -80.0000000046498 -120.000000002717 -159.999999989882 -119.999999997283 40.0000000027171 39.9999999952479 -120.000000004775 -160.000000025261 -1080.00000004225 -2960.00000006225 -3599.99999999513 -320.000000008697 -200.000000002717 -160 -160 -160 -160 -160 -160 -160 -160 -160 -160 -160 -239.999999989382 -359.999999981208 -239.999999983902 -199.999999997283 -160 -160 -80.0000000053205 -119.999999989222 -40 -119.999999994566 -119.99999998646 -120 -120 -120 -120 -80.0000000027171 -80 -79.9999999972829 0 40 40.000000008356 160 160 120.000000014131 239.999999991553 200
-4999.9999999973 -4999.99999999496 -4960.00000000597 -4840.00000001427 -5159.99999999234 -5239.99999998929 -4920.00000001394 -5199.99999998114 -4960.00000001078 -4240.00000001833 -4280.00000000056 -4000.00000000692 -4359.99999999823 -360.000000135628 -3640.00000001207 -3320.00000001077 -4040.00000000901 -4919.99999999659 -4440.00000001104 -4559.99999999075 -4560.0000000046 -4200.0000000264 -4479.99999999834 -4760.00000000211 -4919.99999999212 -4959.9999999973 -3640.0000001074 -4200 -4679.99999999186 -4120.0000000353 -4240.00000000269 -4239.99999999565 -4079.99999999894 -3759.99999999676 -3680.00000000429 -3479.99999999192 -3120.00000000654 -3920.00000000386 -4200.00000000269 -4359.99999999609 -4080.00000001595 -4360.00000000235 -4439.99999998806 -4519.99999999861 -4080.00000001074 -3480.00000005932 -4680.0000000043 -4439.99999997534 -3639.99999997433 -3839.99999998325 -3119.99999997138 -2000.00000003084 -2240.00000000421 -3760.00000001531 -4759.99999999916 -3439.99999997761 -4239.99999997357 -4040.00000002155 -4439.99999999835 -4679.99999999563 -4800.00000000369 -4680 -4720.00000000443 -4799.99999998932 -4720.00000000448 -5399.99999996941 -4880.00000000905 -5079.99999999815 -5080.00000000914 -4920.00000000569 -4880.00000000731 -4840.00000002439 -4639.99999998375 -4799.99999999602 -4719.99999999799 -4680.00000000473 -4360.00000000681 -4800.00000001371 -4999.9999999973 919.999999984845 800 1559.99999999574 1640 1239.99999999826 479.999999992826 119.999999995043 119.999999990041 -359.999999996532 -1520.00000000969 -2040.00000000975 -2879.99999999461 -3519.99999999221 -3519.99999999488 -3599.99999999925 -3720 -3879.99999998714 -3679.9999999973 -3560.00000000792 -1680.00000002425 -2320.00000003704 -3279.9999999973 -3319.99999997326 -199.999999994657 -40 0 40 40 -560.000000016507 0 -5.67449131385709e-19 -1600.00000000822 -4600.00000000269 -4560.00000000557 -4320.0000000002 -4560.00000000854 -4680.00000001422 -5120.00000000297 -5159.9999999973 -4999.99999999968 -4760.00000000269 -4680.00000000575 -4320.00000002657 -4280.00000000082 -4159.9999999861 -4239.99999998831 -3960.00000002885 -3999.99999999831 -4320.0000000559 -4479.99999998059 -4399.99999998964 -4479.99999999941 -4319.99999998946 -4239.99999999873 -4080.00000000269 -3920.00000000201 -3200.00000000269 -3239.99999999337 -2400.00000007411 -999.999999991917 559.999999953343 -3359.99999999168 -3879.99999997508 -3679.99999998007 -4119.9999999973 -4279.99999998289 -4240.00000000632 -4359.99999998827 -4200.00000001273 -4160.00000000169 -3960.00000001013 -1560.00000002618 -2599.9999999876 -1720.00000006443 -4560.00000000111 -1600.00000020208 -4640.00000000269 -4200.00000000118 -2599.9999999805 -1080.00000000024 -119.999999996055 -279.999999990496 -440.000000005389 -720.000000010777 -1279.99999998241 -1799.99999993271 -4160 -3599.99999999859 -3480 -3480 -3480 -3480 -3480 -3480 -3480 -3480 -3480 -3480 -3480 -40 -160 -160.000000443731 -1920.00000016986 -1.07775122123984e-08 -3.05362846120278e-08 319.999999963961 -840.000000003547 -840.000000067973 -2599.99999997898 -639.999999964291 199.99999998729 39.9999999953502 160.000000007356 119.999999989927 200.00000001279 -120.000000004729 -120 -120 -120 -160 -159.999999997306 -160 -160 -160 -160 -160 -160 -160 -160 -160 -160 -160 -2519.99999993476 -3519.99999999731 -3559.9999999973 -3640 -3679.9999999973 -3639.99999999477 -3599.99999999731 -3599.99999998406 -199.999999992008 -160 -160 -160 -120.000000002694 -160 -120 -119.999999997306 -80 -80.0000000055024 -80.0000000055252 -40.0000000082423 -40.0000000026944 -39.9999999917122 159.999999997306 200 160.000000002694 160 199.999999997306 160 199.999999997306
-5080.00000000267 -5120.00000000534 -5079.99999999695 -5159.99999999545 -5279.99999999832 -5279.99999999733 -5120.00000000314 -4560.00000001336 -4160.00000001069 -4839.99999998878 -4799.99999998118 -4600.00000000975 -4560.00000000594 -839.999999964643 -4680.00000000332 -4200 -4639.99999999861 -4720.00000000658 -4680.00000001705 -4799.99999998362 -4959.99999999434 -5119.99999999733 -5119.99999999668 -5120 -4800.00000002041 -4999.99999998931 -4640.00000000728 -3640.00000005627 -4280.00000000631 -4159.99999995854 -4160.00000000433 -4080.00000000801 -3600.00000002032 -3919.99999998499 -3440.00000000755 -3439.99999996991 -3479.99999997211 -3440.00000001003 -4120.00000000148 -4279.99999999368 -4160.00000001135 -4040.00000002501 -4239.99999999445 -4400 -3640.00000001595 -3480.00000001075 -3759.99999998794 -2640.00000006692 -2520.00000001512 -2840.00000000679 -3679.99999996993 -2159.99999994652 -4119.99999999687 -3520.00000001069 -4079.99999999421 -3880.00000000158 -4159.99999999893 -4479.99999998339 -4519.99999999693 -4480.00000001804 -4799.99999998788 -4879.99999999313 -4799.99999999292 -4920.00000000085 -4640.00000001161 -5319.99999998216 -5040 -5040.00000000452 -5000.00000000642 -4920.0000000019 -4840.00000000459 -4559.99999996768 -4520.00000000338 -4719.99999999471 -4559.99999999733 -4600.00000000407 -4360.00000000801 -4799.99999993699 -5239.99999999523 -4959.99999974063 1320.00000006208 1320 1640.00000000706 1479.99999998846 479.999999997328 -39.9999999969191 -200 -720.000000004252 -1800.00000000534 -2520.00000000267 -2879.99999999733 -3439.99999999253 -3599.99999999173 -3560.0000000129 -3639.99999999547 -1000.00000010438 -160.000000002672 -79.9999999973283 -80.0000000079012 -800.000000026171 -4920 -4920 -2279.99999994428 -40 0 0 2.67164068627513e-09 -599.999999950546 -1.09139364216478e-08 -760.000000052262 -4759.99999999434 -4679.99999999162 -4199.99999999445 -4440.0000000087 -4800.00000000292 -5040.00000000027 -5200.00000000534 -5200.00000000331 -4880.00000000602 -4679.99999999927 -4400.00000005044 -4679.99999999507 -4000.00000001733 -4199.99999999733 -4399.9999999709 -4279.99999997863 -4320.00000002346 -4480.00000000534 -4639.99999997749 -3840.00000007537 -4119.9999999809 -4079.99999999402 -4000.00000001534 -3880.00000001137 -3399.99999999929 -3280.00000001409 -2439.99999998706 -2440.00000001758 -2599.9999998555 -3199.99999997432 -3759.99999998763 -4239.99999999466 -4279.99999999733 -4320.00000000358 -4240 -4240.00000000267 -4199.99999998905 -3280.00000000067 -3199.99999998482 -3200.0000000345 -3320.00000000267 -3520.00000002088 -4039.99999999354 -4120.00000000267 -4159.9999999943 -3999.99999998305 -4240 -3040.00000000267 -1759.99999993531 -39.9999999973284 -80 -4079.9999998277 -4080.0000000147 -3840.00000000665 -3720.00000000534 -3600 -3599.99999999322 -3560 -3560 -3480.00000000267 -3519.99999999733 -3480.00000000422 -3519.99999999309 -3519.99999999574 -3480 -3480 -3480 -3480 -160 -40 -160 -3160.00000021965 -559.999999867111 119.999999997328 -479.99999994169 80.0000000098794 -480.000000032696 -2720.00000001451 -1600.00000000995 -1079.99999998345 -79.9999999467718 199.999999996646 200 0 -160 -160 -119.999999997328 -120 119.999999997328 119.999999987642 -120 -120.000000002672 -160 -160 199.999999997328 39.9999999973284 -80.0000000053433 -160 -2159.99999987948 -3559.99999999466 -3599.99999999466 -3639.99999999733 -3680 -3600.00000000267 -3560.00000000801 -2760.00000005357 -3080.00000006622 -3640.00000000525 -3560 -3679.99999999203 -519.999999944055 -160 -160 -160 -160 -160 -80.0000000162572 -159.999999997328 -160 -160 -119.99999999178 79.9999999973283 120.000000002922 120.000000002672 200 160 200 200 200.000000008401 239.999999997328
-5120.00000000265 -5159.999999997 -5080 -5120.00000000265 -5199.99999999609 -5160 -5119.99999999688 -4760.00000000216 -4560.00000000948 -5119.9999999878 -5079.99999999735 -4920.00000000323 -4240.00000000698 319.999999999522 -4360.00000000006 -4000.00000000332 -4679.99999999609 -4760.00000000072 -4879.99999999661 -4839.99999999043 -5119.99999995596 -5040.00000001117 -5080.00000001044 -5120.00000000009 -5000.00000000617 -4920.00000000355 -4840 -4839.99999998392 -4479.99999999277 -4479.99999999272 -4120.00000000265 -4119.99999999632 -3760.00000000847 -3399.99999998519 -3679.99999997484 -3240.00000000947 -3519.99999999055 -3840 -4239.99999999854 -4239.99999999978 -4240.00000000265 -3639.9999999923 -4519.99999997094 -4359.99999998146 -4719.99999998278 -4199.9999999947 -4040.0000000107 -4319.99999995386 -1960.0000000228 -3600.00000000795 -3440.00000000147 -3280.0000000053 -3399.99999998865 -4039.99999998787 -3920.0000000095 -4080.00000000107 -4319.99999999575 -4200.00000001933 -4719.99999998546 -4760.00000000069 -4879.99999999757 -4640.00000001045 -4560.0000000202 -4240.0000000062 -4680.00000000708 -5240.00000000349 -5040.0000000053 -4959.99999999524 -4880 -4800 -4600.00000001106 -4559.99999999735 -4400 -4639.99999999669 -4679.99999999534 -4639.9999999884 -4599.99999999648 -4199.9999998825 -5200 -5079.99999987882 -239.999999953673 880.000000030354 1440.00000002815 1679.99999999735 1199.99999998839 -40.0000000026489 -160.000000002285 -760.000000002308 -1440.00000001197 -2240.00000000235 -2880.00000000475 -2800.00000001854 -2640.0000000227 -159.999999995111 -5.11590769730964e-09 -40 -39.9999999974875 -40 -40 -480.00000000781 -1120.00000000521 -4920 -4919.99999997616 -1559.99999998139 -1279.9999999842 -919.999999976023 -839.99999999178 -320 40 -240.000000043178 -2.48610376734143e-07 -4360.00000000285 -4640.00000001415 -5039.99999999735 -5039.99999999443 -5160 -5160 -4960.00000000598 -4800.00000000265 -4599.99999999393 -3520.00000006381 -4719.99999999076 -4679.99999999607 -4400.00000000673 -4480.000000001 -4719.9999999725 -4759.99999996603 -4280.00000003747 -4359.99999999352 -4040.00000004384 -4239.99999995359 -3919.99999996161 -4039.99999996199 -3400.0000000113 -2440.00000003688 -2920.0000000068 -2879.9999999947 -2639.99999996794 -1639.99999987834 -3760.00000000168 -3840.00000005367 -4359.99999998675 -4440.00000000356 -4439.99999999735 -4240.0000000036 -4200 -3920.00000000165 -3759.9999999888 -3960.0000000037 -3119.99999991514 -3479.99999997725 -3839.99999999693 -4159.9999999947 -4200.00000000381 -4239.99999999735 -4160.00000001301 -4319.9999999947 -4279.99999999985 -3119.999999951 -200.000000002649 159.999999969577 -440.000000023874 -839.999999917407 -359.999999990666 -2560.00000007344 -3000.00000001954 -480.000000042269 -320.000000102136 -600.000000095099 -1480.00000014536 -3000.00000003179 -3360.00000001638 -3480.00000000954 -3439.99999998663 39.9999998013322 -160.000000007947 -160 -160.000000078376 0 -160 -160 -1360.00000035117 -3680.00000003657 -79.9999999740908 -400.000000005298 -400.000000001887 -160.000000006469 -2400.00000003207 -2919.99999994324 -2479.9999999947 -1839.9999999874 -2599.99999998538 -2000.00000000856 -639.999999874649 160.000000003592 -1959.99999993853 -2799.99999987066 -2999.99999996127 -2599.99999999131 -2480 -2480.00000001103 -3639.99999992624 -2039.99999992815 -639.999999966656 80.0000000403361 800.000000005298 559.999999999704 519.999999992326 279.999999966315 -160.000000036402 -199.999999994907 -160.000000002649 -160 -160 -160 -160 -160 -199.999999992099 -760.00000010308 -3600 -3679.99999998671 -1239.99999984815 -160 -160 -120.00000000806 -120 -80.0000000107548 -120 -40.0000000081513 -5.29780663782761e-09 119.999999994452 80.0000000055706 80.0000000052978 160 159.999999994361 120.000000002649 160.000000005684 200 239.999999997351 239.999999997351
-5280.00000000033 -5280 -5199.99999999475 -5080.0000000004 -5119.99999999821 -4960.00000000262 -4680.00000000695 -3840.00000002046 -3839.99999999024 -4680.00000000788 -4680.0000000378 -5119.99999998926 -4759.99999997797 -5160 -4720.00000001773 -3400.00000000732 -3720.00000001189 -4759.99999999737 -4999.99999999663 -5239.9999999823 -5319.99999999345 -4440.00000002383 -4919.99999999834 -4799.99999999908 -5080 -5039.99999999647 -4800.00000000263 -4599.99999999475 -4400.00000000263 -4320.00000000624 -4160.00000000626 -4159.99999999896 -3920.00000000266 -3679.99999999521 -3520.00000000152 -3239.99999999887 -3480.0000000064 -3520.00000001373 -3919.99999999737 -4240.00000000122 -4559.99999999752 -4639.99999999601 -4000.00000001553 -4399.99999999343 -4559.99999998284 -4799.99999999196 -1920.00000018333 -3159.99999997671 -3200.00000000405 -3439.99999998805 -3360.00000001081 -3479.99999999326 -3720.00000000342 -3919.99999999366 -4359.99999999056 -4319.99999999686 -4440.00000000014 -4719.99999999837 -4800.00000000592 -4879.9999999957 -4880 -4759.99999999748 -4599.99999996334 -3560.00000004053 -4879.99999999559 -4920.00000000706 -5079.99999998583 -4839.99999999289 -4879.9999999955 -4959.9999999962 -4839.99999999142 -4039.9999999928 -4639.99999999212 -4560 -4519.99999999536 -4600.00000000144 -4680.00000000262 -4679.99999999267 -4800.00000001735 -1759.99999995598 -2720.00000000477 640.000000022624 839.999999989927 960.000000007878 2119.99999999776 719.999999975193 -80.0000000026262 -480.000000012176 -1080.00000001457 -2240.00000000498 -2600.00000000713 -1839.99999996722 -1679.99999998465 -79.9999999973738 40.0000000152795 1319.99999998325 1920.000000033 40.0000000026262 0 -200.000000025989 -2240.00000010932 -4920 -4920 -4920 -4920 -160 0 -39.9999999972374 0 -359.999999975819 -1679.99999996201 -4800.00000001359 -5119.9999999945 -5199.99999999185 -5200 -5199.99999999968 -5119.99999999966 -5079.99999999964 -4880.00000000301 -4639.99999999615 -4519.99999998644 -4759.99999995434 -4560.00000002698 -4920 -4560.00000000421 -4879.99999999475 -4480.00000003641 -4759.99999998569 -4439.99999999799 -4159.99999999865 -4200.0000000092 -3480.00000003035 -3280.00000001524 -3280.00000000263 -3399.99999998874 -3639.99999998162 -3080.00000003708 -3080.00000001344 -3919.99999999559 -4119.99999994678 -4319.99999998683 -4480.00000000525 -4599.99999998763 -4400.00000000263 -4320.0000000036 -4279.99999999737 -4239.99999999635 -4160.00000000367 -4199.9999999963 -4119.99999999737 -4119.99999999626 -4120.00000000262 -4039.99999999884 -3799.99999997689 -3360.00000000263 -4239.99999998319 -2999.99999998499 -439.999999986949 -559.999999992155 -399.999999994736 -200.000000051409 -119.999999985403 -80.0000000066393 39.9999999737383 -120.000000019816 -239.999999960039 -79.9999999719307 280.000000016132 440.000000007878 679.999999998306 720.000000018895 79.9999999995225 239.999999966269 399.999999979639 -39.99999997857 -119.999999988756 -40.0000000069576 80.0000000139607 360.000000008754 -1520.00000000795 -1.90163973455797e-07 -2000.00000006668 -4920 -4399.99999978734 -1359.99999997522 -919.999999988063 -400.000000030673 -440.000000005866 -1400.00000007227 -3079.99999998024 -2479.99999999475 -2359.99999996094 -959.999999948613 -2279.9999999779 -3199.99999998635 -3720.00000011405 -3720.0000000074 -3799.99999999783 -4799.99999992909 -4919.99999999212 -4919.99999999212 -4799.99999992647 -3800 -3559.99999999507 -3319.99999995916 -559.999999941508 519.999999997374 879.999999992349 760.000000010505 959.999999979718 239.999999989654 -160 -160 -160 -160 -160 -160 -160 -160 -200.00000001055 -3160.00000004761 -3559.99999999203 -1919.99999982417 -160 -120 -119.999999994566 -40 120.000000008106 120.000000005252 80.0000000026262 120.000000002922 120 160.000000002626 160 160 200.000000005662 239.999999997374 239.999999997374 279.999999991644 319.999999997374
-5439.99999998992 -5319.99999999965 -5200.0000000026 -5079.99999999461 -5119.99999999916 -4720.0000000026 -3960.00000000447 -4519.99999998193 -3560.00000007007 -5279.9999999781 -5040.00000001302 -4720.00000001822 -4720.00000001142 -5200 -5199.9999999974 -4520.00000000201 -4399.99999997501 -4200.00000001399 -4760.00000000148 -4840.00000000184 -4879.99999999843 -4599.99999999138 -4680.00000004558 -4000.00000000175 -4960.0000000035 -4999.99999999569 -4680.0000000026 -4600.00000000426 -4279.99999996379 -3720.0000000088 -3880.00000001982 -4200.00000000988 -4159.99999998121 -3719.99999999632 -3479.99999999528 -3039.99999999409 -2960.00000001876 -3399.99999999336 -3760.00000000716 -4000.00000000416 -2720.00000004302 -2960.00000000883 -3319.99999999226 -3759.99999998178 -3520.00000000648 -3279.99999999885 -3280.00000001041 -3360.0000000014 -3439.9999999974 -3359.9999999974 -3519.99999999366 -3640 -3800.00000000672 -4160 -4359.99999999688 -4399.99999999684 -4440.0000000006 -4679.99999999056 -4880.0000000026 -4720.00000000614 -5039.99999996248 -4320.00000001905 -4640.00000000695 -4560.00000001999 -4760.00000000766 -4720.00000001244 -4960.00000000077 -4839.9999999989 -4920.00000000448 -4959.9999999962 -4799.99999999876 -4719.99999999222 -4640 -4519.99999999157 -4480.00000000864 -4679.99999999796 -4719.99999999794 -4680.00000001977 -5040.0000000036 -5239.9999998996 720.000000037107 1759.99999996051 -1199.99999997177 960.000000011857 1400.00000000708 1719.99999999061 279.999999997397 119.999999994793 -360.000000019736 -1120.00000000521 -840.00000003339 -640.000000015007 -240.000000013381 -79.9999999899046 -4.93400875679728e-09 280.000000033503 160.000000036448 160.000000000136 39.9999999693045 -1399.99999999221 -4920 -4920 -4920 -4920 -4920 -2479.99999992665 -160 -320.00000001105 -319.999999991644 0 -199.999999978263 -2399.99999993652 -4880.00000001698 -5199.99999997361 -5200 -5200 -5160 -5160.00000000299 -4840.00000001506 -4240.00000004426 -4680.00000000169 -4840.00000001445 -4240.00000007359 -4760.00000000104 -5000 -4560.0000000205 -4400.00000003739 -4439.99999998192 -4440.00000000845 -4160 -3480.00000001767 -3639.9999999456 -3440.00000002967 -3839.99999997396 -4119.99999992556 -3919.9999999924 -3920.00000001644 -4039.9999999974 -4160.00000000347 -4280.00000000349 -4440.00000000612 -4480.00000000521 -4400 -4439.99999998763 -4280 -4200.0000000026 -4200.0000000026 -4239.99999999372 -4159.99999999001 -3879.99999999777 -3680.00000001155 -3320.00000000057 -2760.0000000291 -3080.0000000551 -2600.00000001439 -1719.99999999155 -519.999999992247 -399.999999992201 -359.999999988267 -240.000000024852 679.999999997397 839.999999913257 80.0000000132331 79.999999998829 439.999999993338 439.999999998522 560.000000002603 519.999999971556 440.000000006264 239.999999994259 40.0000000088221 919.999999985004 479.999999999034 719.999999994793 79.9999999983174 -80.0000000026034 -720.000000024283 -1559.99999987638 -79.9999999973966 -2240.00000000638 -2920.0000000255 -3359.99999998514 -3520.00000012844 -4920 -2319.99999982485 560.000000149691 -40.0000000123691 -200.000000024261 -1640.0000000801 -3239.99999999856 -2599.99999995034 -4759.9999999848 -4919.99999999219 -4920 -4920 -4920 -4920 -4920 -4920 -4920 -4920 -4920 -4920 -4919.99999997739 -3759.9999999974 -3599.99999999242 -919.99999989592 320 439.999999997715 440.000000007674 680.000000012903 280 -80.0000000154841 -160 -200.000000007788 -200 -160 -160 -160 -160 -160 -360.000000052887 -3520.00000001057 -1479.99999985874 -80.0000000080149 -39.9999999919623 120.000000005457 119.999999997397 159.999999991894 120.000000005525 159.999999997397 239.999999991826 160.000000005207 200 200 279.999999997397 480.000000000477 600 959.999999991667 440.000000010959
-5399.99999999742 -5160.00000000516 -4480.00000002398 -3960.00000003038 -4239.99999999784 -4159.99999999218 -2680.00000001384 -4160.00000001619 -4839.99999999691 -4480.0000000291 -4520.0000000166 -4400.00000000806 -4799.99999999699 199.999999961301 -5279.99999999288 -4600 -4680.00000000427 -3600.00000001763 -4040.0000000048 -4520.00000000592 -4640.00000000336 -4760.00000000097 -4880.00000000175 -4280.00000004631 -4800.00000000862 -4600.00000000516 -4440 -4639.99999997999 -3879.99999999226 -3080.00000005613 -4080.00000000607 -4359.99999999535 -3959.99999999742 -3799.99999998728 -2000.00000005525 -2879.99999998935 -3000.00000000288 -3559.99999999649 -3640.00000001413 -4160.0000000032 -4119.99999997811 -3680.00000003458 -3720.00000001934 -4239.99999998823 -3959.99999999351 -3679.99999999607 -3240.00000000258 -3559.9999999857 -3320.00000000258 -3159.99999999886 -3240.00000000956 -3679.99999999633 -3959.99999999333 -4079.99999999693 -4199.99999999844 -4240.00000000416 -4360.00000000837 -4600 -4840.00000000022 -4600.00000000258 -4520.00000000855 -4639.99999999657 -4639.99999996953 -4719.99999996563 -4719.9999999774 -4720.00000000362 -4840.00000001248 -4759.99999999113 -4799.99999999625 -4799.99999999362 -4640.00000000066 -4600.0000000071 -4639.9999999673 -3520.00000005936 -1800.00000004969 -3360.00000004154 -1400.00000011129 -4239.99999995073 -1440.00000001692 -5239.99999999742 -359.999999975068 1360.00000000475 1439.99999996916 -2319.9999999823 6.88487489229141e-08 1360.00000000742 1559.99999998997 759.999999984789 79.9999999997499 159.999999994839 0 40 39.9999999974193 -2.58069121612313e-09 79.9999999974193 239.999999997419 119.999999994907 40 -1560.00000001526 -160 -159.999999994839 -4240.00000007285 -4920 -4920 -4920 -4920 -4920 -160 -1200.00000001278 -440.000000019884 -1840.00000005003 -1479.99999997092 -3039.99999997788 -4720.00000001676 -5000.00000000292 -5119.99999999447 -5039.9999999889 -4880.00000000815 -4800.00000004087 -5039.99999999696 -4759.99999999952 -4640.00000000774 -4799.99999998605 -4840.00000000313 -4920.00000000315 -4720.00000001409 -4520.00000003404 -4360.00000000258 -3800.00000006403 -4120.0000000019 -3840.00000000657 -3959.9999999595 -3480.00000001215 -4399.99999997187 -4400.00000001191 -4279.99999996588 -4320.00000000252 -4040.00000002152 -4319.99999998024 -4080.00000001472 -4480 -4440.00000000258 -4320.0000000016 -4320 -4319.9999999964 -4240 -4160.00000000623 -3560.00000002025 -3839.9999999963 -3439.99999999628 -3239.99999999484 -2920.00000001645 -2439.9999999809 -1760.00000000258 -2479.99999998068 -440.000000012869 479.999999923807 -520.000000007799 -520.0000000417 800.000000114107 160.00000001171 120.00000003472 559.99999995814 280.000000033083 879.999999956106 479.999999996999 160.000000017008 -160.000000001546 -280 -360.000000005161 -440.000000001614 -360 320.000000006821 200.000000015484 -39.9999999974193 -119.999999997419 -119.999999993088 -719.999999988711 -119.999999995623 -920.000000320756 -3599.9999999941 -3840.00000001262 -4919.99999998213 -3640.00000018241 -4920 -4080.00000003824 -3519.99999996602 -3599.99999984437 -4079.99999992754 -4920 -4920 -4920 -4920 -4920 -4920 -4920 -4920 -4920 -4920 -4920 -4920 -4920 -4920 -4920 -4920 -3680 -3680 -1879.99999989094 240.000000007628 399.99999999751 279.999999997419 520.000000025625 439.999999981981 79.9999999922579 -200.000000007765 -240 -200 -200 -160 -160 -160 -160 -160 -920.000000077114 -40.0000000025807 40.0000000054342 120 120.00000000548 160.000000002581 120.000000008106 200 240 239.999999997419 200 200 200.000000002581 239.999999997419 240 240 240
-5160.00000000033 -4600.00000000221 -3159.99999999707 -4079.9999999701 -4800.00000000214 -4480.00000000767 -3999.99999992884 -4160.00000003961 -4240.00000001637 -5079.99999991201 -4520.00000000712 -4319.99999997268 -4040.00000000451 -3799.99999999937 -4280.00000002118 -4440.00000001346 -4599.99999999861 -3120.0000000397 -3040.00000000989 -4199.99999999924 -4559.99999999666 -4639.99999999663 -4520.00000000076 -4440.00000000511 -3559.99999999832 -3999.99999999412 -4120.0000000266 -4120.00000000338 -3759.99999997732 -4360.00000000569 -4639.99999999798 -4280.00000000304 -3760.00000002196 -2960.00000002569 -4359.99999998095 -4320.00000000245 -4879.99999998491 -4719.99999999276 -4439.99999999505 -4280.00000000511 -4279.99999999628 -4039.99999999362 -4079.99999999998 -4159.99999998329 -4239.99999998977 -3880.00000000917 -3879.99999999469 -3520.00000000396 -3439.99999999886 -3039.99999999744 -3400 -3839.99999999488 -3879.99999999849 -3879.9999999867 -4199.99999998398 -4080 -4280.0000000016 -4520.00000000581 -4599.99999999835 -4680.00000001101 -4799.99999999405 -4520.00000001111 -4600.00000000348 -4480.00000000608 -4120.00000000131 -4640.00000001054 -4959.99999999561 -4800 -5159.99999998977 -5119.99999999298 -3480.00000004798 -2679.9999999737 -2160.00000000452 -2800.00000000085 -3800.00000000402 -3720.00000001837 -4119.99999996975 -3680.00000001119 -2640.00000000642 -4600.00000002126 -3599.99999989011 559.999999986437 1280.00000001681 719.999999988233 479.999999982413 -640.000000009936 680.000000020191 1959.99999999383 1479.99999998948 479.999999983322 280 439.999999992326 119.999999999727 79.9999999975557 159.999999997442 280 40.0000000050704 -879.99999998214 -3879.99999999233 -1879.99999987688 -119.999999984561 40.0000000025579 -80.000000043849 -4920 -4920 -4920 -4920 -4920 -4920 -999.999999911836 -240.00000012592 -1760.00000002982 -2280.0000000553 -1600.00000021214 -5000.00000000365 -5079.99999999744 -4960.00000000256 -4799.99999999189 -5119.99999999744 -5040.00000001119 -5080.00000000256 -4960.00000000308 -4880.0000000031 -4919.9999999855 -4799.99999999685 -4560.00000000573 -4439.99999999361 -4479.99999999612 -3960 -3079.99999996111 -3400.00000001352 -3799.99999998602 -4200.00000002689 -4400.00000000767 -4559.99999999058 -4160.00000001275 -4559.99999998887 -4560.00000002213 -4399.99999998977 -4200.00000004932 -4520 -4440 -4360 -4360.00000000614 -4319.9999999964 -4160 -3879.99999999891 -3159.99999999889 -8.49809111959677e-08 -2640.00000008482 -3399.99999999114 -320.000000077648 -1480.00000000256 -1799.99999999619 -1640.00000000639 -360.000000005116 319.999999978297 759.999999960289 519.999999983629 679.999999975898 -119.999999997442 -319.999999996316 -400.000000010584 -400.000000002558 -240.000000001057 -40.0000000051159 -79.999999997442 -279.999999985061 -280 -280.000000002558 -240.000000004195 -279.999999989006 -240.000000002558 -199.999999995737 -160 -120 -80.0000000025579 -280 -239.999999997442 -360 -2000.00000004136 -2760.00000020242 -3439.99999998469 -3079.99999999488 -4920 -4920 -4920 -4920 -4920 -4920 -4920 -4920 -4920 -4920 -4920 -4920 -4920 -4920 -4920 -3080.00000009236 -2280.0000000161 -1760.00000013841 -4920 -4920 -4920 -4920 -3640.000000005 -3640 -2079.99999991122 120.000000002558 399.999999997465 239.999999997442 360.000000017974 839.999999994884 200 -160 -200.00000000523 -200 -240 -200 -160 -160 -160 -200.000000018724 -39.9999999920305 80 159.999999997442 120 120.000000005502 160 200 200 199.999999997442 160 160 160 200.000000002558 240 240.000000002558 240.000000002558
-4880.00000000319 -4799.99999999563 -4040.00000000084 -4399.99999998841 -3840.00000002112 -4000.0000000052 -4679.99999999793 -5240.00000000351 -5279.99999999137 -5239.9999999944 -4999.9999999966 -4199.99999998616 -3800.00000000653 -3199.99999999819 -3360.00000003366 -4000.00000000455 -4200.00000000691 -3479.999999966 -2999.99999995702 -3360.00000000076 -3680.00000001153 -4280.0000000151 -3720.0000000035 -4359.99999997465 -4279.99999992385 -3919.9999999757 -4120.00000000184 -4360.00000000537 -4359.99999999843 -4679.99999999549 -4640 -5159.99999998432 -5120.00000000253 -4879.99999998479 -4720.0000000076 -4600.00000001323 -4879.99999999493 -4719.99999999825 -4720.00000000402 -4480.00000000882 -4200.00000000253 -4519.99999998988 -4480.0000000051 -4240 -4279.99999999867 -4080 -3960.00000000507 -3799.9999999986 -3479.99999999604 -3120.00000000507 -3359.99999998693 -3760.00000000149 -3759.99999999947 -3879.99999999947 -3800.00000001072 -3920.0000000057 -4080.00000000895 -4360.0000000065 -4440.00000001002 -4720.00000000507 -4559.99999999915 -4599.99999999411 -4559.99999999652 -4640.00000000253 -4640.0000000061 -4760.00000000181 -4760.00000000437 -5080.00000000439 -5079.99999998246 -4839.99999999872 -4159.99999996896 -1400.0000000207 -4080.00000001687 -2760.00000001229 -2960.00000000998 -3560.00000001014 -3039.99999998082 -4040.00000001593 -4719.99999999363 -5319.99999996958 -5200.00000000391 -479.999999984436 319.999999986835 1000.00000001426 999.999999990155 879.999999999454 -480.000000068235 -799.999999957583 -239.999999982049 -39.9999999902229 560.000000014256 920 1399.99999996288 399.999999990041 200.000000002467 239.99999998746 39.9999999974875 -4600 -4520 -4519.99999999484 -3399.99999975265 -5.16138243256166e-09 40 40 -4920 -4920 -4920 -4920 -4920 -4920 -4920 -3839.99999982313 -720.000000100135 -1519.99999992571 -1599.99999995905 -4800.00000000294 -5040.00000000253 -4759.99999999955 -4680.00000003329 -5000.00000000253 -5000 -4959.99999999438 -4880 -4839.99999999375 -4720 -4560.00000000064 -4439.99999999934 -4000.00000001706 -4199.99999999422 -3879.99999996486 -3480.00000009163 -4439.99999991201 -4360.00000004106 -4520.00000001767 -4679.99999999409 -4639.99999999239 -4719.99999999746 -4720.00000000344 -4480.00000003255 -4639.99999999397 -4560 -4520.00000000253 -4479.9999999939 -4359.99999999746 -4080.0000000076 -3799.99999999166 -3520.00000000254 -3520.00000000621 -3360 -599.999999997965 -1479.99999986372 -1319.99999999247 -80 -80 40.000000001296 599.999999993406 240.000000021623 -80.0000000013642 -80.0000000025352 80.0000000078899 -40.0000000039677 -1.41312739285448e-08 39.9999999883812 160.000000001501 280.000000004059 360.000000006617 359.999999999034 360.000000001592 239.999999989166 -6.70752342584017e-09 -40 -80.000000006753 -80 4.26325641429064e-09 0 -2.53521648091909e-09 -120 -359.999999997465 -839.999999988017 -1399.99999999239 -2400.00000000442 -3040.00000001205 -3879.99999994905 -2639.99999999804 -2280.0000000107 -4920 -4920 -4920 -4920 -4920 -4920 -4920 -4920 -4759.99999999131 -2760.00000014095 -3160.00000006276 -2720.00000007099 199.999999992394 80.0000000025352 5.07043296238436e-09 160.000000007196 280.000000009959 -600.000000171428 -4920 -4920 -4920 -4920 -4920 -3680.00000000758 -2999.9999999138 40.0000000101863 360.00000000507 239.999999997465 280.000000007697 519.999999981912 279.999999987051 -160 -160 -200 -160 -160 -199.999999994657 -199.999999992099 -399.999999981299 -80 40.0000000054342 80.0000000079922 120 120 160 200 200 199.999999994407 160 199.999999994361 159.999999997465 160.000000002535 200 200.000000002535 200.000000008288
-5200.00000000251 -4680.00000000216 -3440.00000002801 -3240.00000001891 -3919.99999999665 -4999.99999998995 -5439.99999999293 -5639.99999999902 -5480 -5279.99999999444 -4999.99999999497 -4520.00000000502 -4159.99999999447 -2039.99999994983 439.999999924728 -3519.99999999262 -3919.99999999567 -4399.99999999283 -4079.99999998123 -3160.00000000655 -3600.00000000581 -3480.00000000574 -3639.99999999419 -2999.99999996891 -2879.99999999989 -4120.00000000323 -4200.00000002881 -4439.99999998555 -5039.99999998898 -5320 -5120.00000000754 -5240.00000000355 -5080.00000000211 -4840.0000000097 -4879.99999999418 -4760.00000000112 -4760.00000000481 -4799.9999999938 -4719.99999999617 -4839.99999999133 -4759.99999999883 -4719.99999999621 -4439.99999999497 -4319.99999999487 -4160 -4000.00000001276 -3919.99999999701 -3840 -3560.00000002076 -3280.00000000144 -3400.00000000587 -3560.00000000251 -3639.99999999849 -3560.0000000046 -3559.99999999844 -3920.00000000158 -4080.00000000069 -4439.99999999335 -4400.00000000754 -4520.00000002511 -4640 -4560.00000000674 -4480.00000000251 -4679.9999999922 -4679.99999999927 -4480.00000001045 -4320.00000001712 -5000.00000000939 -5159.99999998308 -4000.00000002507 -2480.00000001182 -2879.99999996468 -4319.99999999945 -4479.99999996639 -3800.00000002262 -3999.99999998372 -3759.9999999904 -4959.99999997028 -5439.99999998615 -3520.00000015558 -5319.99999999712 -5320 -40.0000000025125 200.000000011676 800.000000002512 600.000000002512 319.999999993372 79.9999999928718 -40.000000009868 -760.00000002716 -1240.00000000251 -599.999999940155 600.000000030059 479.999999987642 200.000000000045 40.0000000226123 -6.62817886134256e-18 -4000.00000004292 -4439.9999999973 -3960.00000001263 -4480.00000000763 -4319.99999998447 -3159.99999998506 240.000000009413 40 -4920 -4920 -4920 -4920 -4920 -4920 -4920 -4920 -839.999999925012 -240.000000050659 -519.999999937813 -4679.99999999909 -4680.00000000203 -4560.00000001356 -4560.00000000806 -4760.00000000197 -4720.00000000251 -4480.00000003621 -4600.00000000876 -4559.99999999936 -4400.00000000568 -4439.99999999293 -4119.99999996461 -3840.00000002228 -2720.00000008588 -2960.00000000251 -3639.99999997261 -3679.99999999164 -4799.99999995141 -4400.00000001013 -4719.9999999966 -4760.00000000251 -4720.00000000596 -4720 -4680.00000000098 -4600 -4560 -4440 -4240 -4000.00000000863 -3319.99999999889 -3160.00000000502 -3280.00000000986 -3320.00000000251 -2800 -1560.00000000508 79.9999999874376 200.00000001387 200.000000005105 439.999999994975 399.999999988609 439.999999973295 280.000000006412 399.999999993565 360.000000003945 479.999999991007 439.999999993497 360.000000001501 440.000000002512 360 360.000000006594 360 240.000000002512 199.999999997488 160.000000004172 159.999999993292 119.999999997487 120 119.999999997487 80 80 80 40 -320.000000018804 -1240.00000002514 -1920.00000002332 -2200.00000000696 -1959.99999992322 -2999.99999997648 -2079.999999998 -1280.00000003922 -1720.00000001163 -3400.00000003133 -2840.0000002964 -2840.00000012602 -2560.00000014359 -2639.99999999031 -2800.00000000434 -2760.00000000754 -2919.9999999802 -2600.00000000475 -1279.99999999045 -79.9999999974875 -2.51247911364786e-09 -40.0000000025125 -80 -79.9999999900865 79.9999999976012 79.999999950478 -4920 -4920 -4920 -4920 -4920 -4919.99999997725 -3759.99999996455 -439.999999949205 119.999999997487 239.999999997487 479.999999981935 520.000000002512 239.999999997283 -160 -160 -160 -160 -160 -200 -1519.99999996803 -160.000000005411 -40 80 80 160 199.999999991962 200 120 160 200 199.999999991849 160 200 160.000000005707 200 200.000000002512
-5040.00000000282 -3680.00000001069 -2919.99999999178 -3640.00000000159 -4559.99999997927 -5599.99999998168 -5639.99999999953 -5640 -5600 -5560.00000000302 -5319.99999999086 -4679.99999999867 -3960.00000001169 -3999.99999997509 -3199.99999996838 -2239.99999998199 -1440.00000008831 -2760.00000006797 -3399.9999999928 -2639.99999998029 -2160.00000001756 -2479.99999999057 -2519.99999998091 -2679.99999999751 -4599.99999998668 -4359.99999999114 -5080.00000001245 -5199.99999998163 -5080.00000000096 -5120.00000000348 -5079.99999999899 -5120.00000000559 -4080.00000002421 -4800.00000000996 -4719.99999999751 -4719.99999999502 -4840.0000000023 -4840.00000000966 -4839.99999999134 -4880.0000000037 -4840.00000000747 -4720.00000000249 -4480 -4200.00000000118 -4040.00000000249 -3920.00000000384 -3880.0000000036 -3799.99999999611 -3560.00000000142 -3560.00000000498 -3360.00000000249 -3480.00000000945 -3639.999999996 -3560.00000000747 -3440.00000000872 -3719.99999999526 -4839.99999996852 -4639.99999999751 -4480.00000000912 -4480 -4560.00000000079 -4479.99999999751 -4400.00000000324 -4639.99999999927 -4680 -4439.9999999914 -4680.00000000864 -4400.00000006578 -4879.99999999683 -4519.99999998291 -4119.9999999931 -2680.00000000819 -4319.99999999803 -3040.00000002042 -3960.00000000201 -3000.00000003505 -4160.00000000627 -5160.00000000583 -5319.99999999176 -5679.99999997661 -5479.99999999219 -5280 -239.999999990928 199.99999998837 1279.9999999644 959.99999994094 160.00000000249 40 0 -4.84305928679464e-09 -479.999999995134 -240 -839.999999999932 -240.000000066905 -2559.99999999502 -2280.00000003237 -3840.00000000982 -1880.00000000701 -839.999999925512 239.999999977228 -120.000000025011 -1399.99999996681 -2200.00000001277 9.95896698374896e-09 40.0000000078785 -400.000000069508 -4920 -4920 -4920 -4920 -4920 -4920 -4920 -4920 -4920 -2760.00000001946 -3439.99999997882 -5399.99999997958 -5319.99999994249 -4759.99999998949 -4319.99999999943 -4240.00000000498 -4280.0000000087 -4679.99999996132 -4280.00000000432 -4160.00000000634 -3880.00000000178 -3360.00000004493 -3799.99999999253 -3559.99999996111 -3159.99999999253 -3279.99999998097 -3360.00000000333 -3719.99999996905 -4200.00000000675 -4480.0000000034 -4720.00000000093 -4680 -4720 -4680.00000000349 -4640.00000000351 -4559.99999999646 -4359.99999999644 -4119.99999998677 -3559.99999998558 -2800.00000001721 -2720.00000001958 -2799.99999998911 -439.999999976706 -80.0000000037517 80.0000000037403 279.999999987494 439.999999988745 279.99999999751 400.000000003831 440.00000000249 439.99999999502 400.00000000249 440.000000003922 559.99999999502 440 399.999999989529 439.99999999751 280.000000023613 319.999999993452 280 280 200 239.999999993361 200.000000004172 199.999999993315 160 120 120 159.99999999751 120.000000006798 160 119.999999995646 39.999999995623 -480.000000023158 -1360.00000002074 -1439.99999999662 -519.999999976194 -79.9999999905299 -39.9999999905071 -360.000000013165 -2919.99999995396 -2240.00000002291 -2560.00000000958 -2999.99999999786 -3119.99999999751 -2880.00000000964 -2439.99999999781 -2719.99999994103 -2200 -1960.00000001697 -119.99999997633 -79.9999999952024 0 80 79.9999999901547 79.9999999926217 -40.0000000049113 -3.07110189455953e-19 -1520.00000022584 -4920 -4920 -4920 -4920 -4920 -4920 -3760.00000000249 -2279.99999990115 7.65112417866519e-09 160 480 360.00000000249 239.999999989495 -160 -160 -160.00000000532 -160 -160.000000005366 -2120.00000005597 -280 -119.999999994566 -39.999999994543 79.9999999920305 80 40.0000000105047 40.0000000080377 80 120 159.999999994384 120 160 199.999999994316 200 200 240.000000005752
-3760.00000001381 -2479.99999999471 -2559.99999999394 -4399.99999999339 -5159.99999999795 -5679.99999999753 -5680 -5640 -5640 -5600 -5439.99999999451 -4999.99999999942 -4879.99999998422 -3839.99999998697 -1840.0000000071 -3719.99999999753 -3839.99999994882 -1600.0000000004 -2040.00000002417 -3319.99999996525 -2439.99999998789 -4079.99999998951 -4440.00000002142 -4639.99999996991 -1599.99999997382 -4879.99999999933 -4959.99999999753 -4880.00000000341 -4959.99999999656 -4920.00000000346 -5040 -4920.00000000247 -5000.00000000106 -4880.00000000247 -4479.99999998247 -3640.00000008574 -4520.00000000264 -4640.00000001221 -4680.00000000135 -4800.00000000487 -4760.00000000002 -4639.99999999753 -4559.99999999496 -4279.99999999869 -4000 -3760.00000000358 -3680.00000000109 -3599.99999999967 -3759.99999999364 -3439.99999999567 -3120.00000000493 -3279.99999999753 -3280.00000001194 -3320.00000002609 -4400.00000000922 -4399.99999999931 -4479.99999999593 -4400.00000000409 -4520 -4479.99999999586 -4519.9999999983 -4320.00000000322 -4320.00000000594 -4360.00000001692 -4560.00000001454 -4760 -4799.99999999324 -4679.99999995986 -4719.99999997759 -4360.0000000093 -4039.99999999369 -2559.99999996643 -2720.00000012008 -4479.99999997382 -3759.99999999039 -3680 -3320.00000000041 -4920.0000000343 -5160.00000001153 -5360.00000000247 -5599.99999998615 -5319.99999999536 -4959.99999976934 40.000000012335 479.99999998588 119.999999995475 40 0 0 -199.999999987892 -1119.99999998766 -1559.99999996834 -999.999999997578 -839.999999953354 320.000000002467 -1400.00000001722 -880.000000027364 480.000000020486 -800.000000017178 560.000000005048 440.000000038642 199.99999999244 39.9999999799002 -3119.99999993402 0 80.0000000051841 -1960.00000012061 -4920 -4920 -4920 -4920 -4920 -4920 -4920 -4920 -4920 -4920 -4920 -4920 -4920.00000006661 -5040.00000011426 -5959.9999998613 -4400.00000000613 -4080.00000001431 -4119.99999998877 -3800.00000000423 -3520.0000000074 -2959.9999999985 -3039.9999999909 -3040.00000003525 -3599.99999999097 -3559.99999996204 -3399.9999999884 -3399.999999985 -3480.00000002337 -4319.99999996974 -4559.99999999904 -4560 -4600.00000000347 -4639.99999999753 -4600 -4479.99999999046 -4200.00000000849 -3959.99999999889 -3479.99999999886 -2919.99999999637 -2079.99999999517 -640.00000000017 -40 160 240 399.999999997533 599.999999994895 479.999999996191 440 440 360.000000019031 439.999999997533 479.999999996078 560.000000010357 440 360 399.99999999352 240 280 280 319.999999993429 240.000000004127 280.00000000415 240 240.000000004195 239.999999993315 200 199.99999999327 200 200 199.999999997533 160 159.999999997533 120 -40 -879.99999999111 -80.0000000044679 -120.000000002467 -79.9999999954866 -40 -120 -640.000000081411 -3240.00000000247 -3080.00000000493 -2599.99999998852 -1680.00000001754 -1519.99999999557 -1280.00000001457 -1440.00000000473 -1079.99999995056 -80 39.9999999927354 7.28732629765871e-09 79.9999999951569 -40.0000000048658 -80 -80 4.93400875681411e-09 120.00000000249 -2880.00000003476 -4920 -4920 -4920 -4920 -4920 -4920 -4800 -3759.99999997465 -679.999999964461 40.000000002467 240.000000015393 120.000000004934 -160 -160 -160 -160 -160 -520.000000015712 -2079.99999992615 -200 -120 -40.000000002467 -39.9999999920305 0 40.0000000080149 1.36083144749346e-08 80 80.000000002467 120.000000002467 160 160 160 239.999999989336 200.000000005753
-4199.99999999234 -4119.99999999582 -3959.99999997688 -4800.00000000159 -5400.00000000244 -5559.99999999667 -5600.00000000582 -5680 -5599.99999999807 -5600 -5600 -5080.00000000489 -4519.9999999994 -4479.99999999937 -4239.99999999856 -4159.99999999645 -4679.999999985 -4839.99999999469 -4840.00000000392 -4679.99999999924 -4719.99999999267 -4760.0000000057 -4400.00000000318 -4560.00000000597 -4479.99999999843 -4320.00000000718 -5159.99999999936 -4800.00000000283 -4920.00000000244 -5040.00000000099 -5119.99999999798 -5040.00000000592 -5120.00000000106 -5159.99999999727 -4679.99999997738 -4759.99999994362 -3640.00000003033 -3520.00000009634 -4759.99999998192 -4400.00000000977 -4879.99999998898 -4759.99999997658 -4520 -4319.99999999608 -4119.99999999489 -3880 -3559.99999999969 -3559.9999999972 -3559.99999998738 -2960.00000005876 -4079.9999999736 -3920.00000001573 -3600.00000000955 -4360.00000000489 -4479.99999999377 -4240.00000001538 -4440.00000000244 -4560 -4559.99999999181 -4320.00000000411 -4200.00000000264 -4120.00000001077 -4359.99999999826 -4559.99999999648 -4679.99999999286 -4040.00000005708 -4680.0000000116 -4560.00000000438 -4440.00000000585 -4240.00000000299 -3119.99999994221 -4600.00000000094 -4479.99999999946 -4679.99999997476 -4719.99999997283 -3919.99999999756 -3800.00000000373 -3000.0000000155 -3920.00000005832 -5639.99999999968 -5719.99999998896 -4959.9999999875 -5279.9999999978 79.9999999977831 239.999999995316 40 -39.9999999977149 -159.999999997419 -959.999999988574 -1080.00000001684 -1760.00000000713 -1960.0000000024 -6.1038463173479e-08 -719.999999985334 -1360.00000000507 -1679.99999999022 -1760.00000000055 -1279.99999996315 -2760.00000004388 -4359.99999999498 -2519.99999992582 -559.999999995475 -1119.99999999164 -959.999999951285 -1079.99999994561 360.000000045361 280 -1800.0000000069 -4439.99999995185 -4920 -4920 -4920 -4920 -4920 -4920 -4920 -4920 -4920 -4920 -4920 -4920 -4920 -4920 -3839.99999998994 -3639.99999998496 -3439.99999999854 -2959.99999999775 -2639.99999998134 -3199.99999996595 -3440.00000000326 -3479.99999999916 -3719.9999999977 -3519.99999999911 -3759.99999996675 -3720.0000000092 -3919.99999999022 -4120.00000002346 -4319.99999999655 -4359.99999999898 -4439.99999998709 -4479.99999999649 -4360 -4160.00000000489 -3919.9999999917 -3479.99999999524 -2920.00000000126 -1040.00000001349 -119.999999995111 159.999999995111 200.000000003718 320 440 280 280.000000002444 320 479.999999996146 440 439.999999996101 520.000000003922 480.000000002444 360 320 320 240 200 200 239.999999993452 240.000000006571 320.00000000415 320 399.999999997556 440 479.999999993315 439.999999997556 360 359.999999997556 240 200.000000004354 120.000000008754 200 160.000000004422 40.0000000044451 39.9999999930878 -40 -80 -40 2.44426701101488e-09 -40 -40 -280.00000007534 -1119.99999999118 -120 -120 -79.9999999905867 -440.00000002168 -4.75210981647343e-09 -40 199.999999995202 40 40 40 40 -40.0000000024443 -80 -39.9999999802412 839.999999977729 -4920 -4920 -4920 -4920 -4920 -4920 -4920 -4920 -3720 -2679.99999990606 -160 -40.0000000105047 -160 -160 -160 -160 -160 -160.000000015666 -600.000000028979 -1600.00000000733 -399.999999989654 -120 -80 -80 -40 0 40.0000000080377 80.0000000024443 80.0000000024443 119.999999994338 80.0000000081286 120 160 160.000000002444
-5039.99999998173 -5239.99999999617 -5240.00000000092 -5199.99999999718 -5520 -5679.99999999713 -5520.00000000289 -5520.00000000291 -5640 -5640 -5440.00000000838 -5119.999999997 -4679.99999999879 -4639.99999999883 -4519.99999999451 -4479.99999999408 -4480 -4720.00000000771 -4680.00000001338 -4999.99999998471 -4599.99999997821 -4199.99999996368 -4480.00000000415 -4600.0000000131 -5039.99999998923 -5039.99999999875 -3200.00000010788 -4800.00000001305 -4919.99999999951 -5040 -5119.99999999313 -5039.99999999896 -4960.00000000832 -5000.00000000108 -5039.99999999758 -4959.99999999758 -4520.00000000369 -4759.99999999281 -4759.99999999396 -4799.99999999513 -4719.9999999951 -4760 -4600.00000000385 -4320.00000000131 -4080.00000000883 -3760.00000000377 -3759.99999999516 -4119.99999999031 -3760.00000001579 -3560.00000001933 -3280.00000001395 -3879.99999995995 -4040.00000000544 -4319.99999999604 -4360.00000000484 -4320.00000000158 -4319.99999999437 -4320.00000000325 -4240 -4360.00000000242 -4279.99999999588 -4319.99999999273 -4359.99999999342 -3600.00000004138 -3320.00000000203 -2240.00000006709 -3960.00000000006 -3679.9999999212 -2160.00000002224 -2720.00000003299 -3200.00000000226 -4680.00000000048 -4879.99999997851 -4639.99999998262 -4920.00000000242 -4559.99999996695 -5080.00000001101 -4520.00000002459 -4520.00000000242 -4679.99999999728 -4960.00000001801 -5000.00000001887 -5280 439.999999953616 119.999999995157 -2.26236807052333e-09 -719.999999952388 -1120.00000001362 -1839.99999998556 -1479.99999999509 -2520.0000000143 -2200.00000000251 -1959.99999993946 -2359.99999997565 -1719.99999999753 -1479.99999999986 -1560.0000000096 -1640.00000002535 -1880.0000000105 -1999.9999999971 -3960.00000000763 -4480.00000000726 -5200.00000001324 -4359.99999996493 -4319.99999998305 -3199.99999984425 -640.000000079524 -1120.00000000136 -200.000000009811 -4680.00000003138 -4920 -4920 -4920 -4920 -4920 -4920 -4920 -4920 -4920 -4920 -4920 -4920 -4920 -4920 -4240.00000001744 -3480.0000000015 -3240.00000005683 -2999.99999994766 -3159.9999999943 -3559.99999998537 -3559.99999998616 -3520.00000000662 -3679.99999999576 -3959.99999999274 -3800 -3840.00000001308 -4039.99999999658 -3960.00000000242 -3960.00000000484 -4000.00000001182 -4080.00000000836 -4159.99999999424 -4039.9999999916 -3840.00000000126 -3279.9999999964 -2279.99999999517 -80.0000000011937 120.000000003672 319.999999997578 320 359.999999997578 320.000000003763 319.999999997578 319.99999999377 280 320.000000002421 360 359.9999999961 320 320 320 320 280.000000002421 199.999999993543 120 160 200 359.999999997578 440.000000001728 479.999999995828 519.999999990962 520.000000006639 599.999999997578 440.000000004263 440 399.999999997044 440.000000010573 319.999999995646 200.000000004377 160 200 -40 0 -40 0 -79.9999999954639 -40.0000000024215 -80 -119.999999992974 -120 -40 -80.0000000046611 -80.0000000046839 -39.9999999952934 -79.9999999928491 -40 40 40 120 120 80.0000000072873 40 40 -40 -79.9999999950432 160.000000009823 799.999999997578 -4760.00000002979 -4920 -4920 -4920 -4920 -4920 -4920 -4920 -4800 -3719.99999996455 -279.999999925274 239.999999997578 199.999999989859 -160 -160 -160 -160 -199.999999994589 -520 -1400.0000000515 -1399.99999992953 -239.999999995157 -159.999999997578 -120 -79.9999999944293 2.42152964347056e-09 40.0000000024215 80 40.0000000080831 80 80.0000000081286 80 80.0000000024215
-5759.99999998909 -5439.99999999725 -5599.99999999685 -5400.00000001158 -5640.00000000042 -5680 -5680.00000000046 -5639.99999999231 -5559.99999999658 -5640 -5559.9999999976 -5280.00000000835 -4999.9999999982 -4399.99999999927 -4480.00000000259 -5079.99999996125 -4880.0000000024 -4880.00000000143 -4759.9999999976 -4680.00000000076 -4720.00000000083 -4760.00000000404 -4640.0000000024 -4680.0000000017 -4680.00000000392 -4799.99999998831 -4760.0000000024 -4839.99999999922 -4760.00000000096 -4720.0000000048 -4800.00000000682 -4919.99999999863 -4840.00000000346 -4799.99999997709 -4840 -4959.99999999295 -4799.9999999953 -4639.99999999877 -4600 -4439.99999999642 -4520.00000000256 -4839.99999998068 -4600.00000000737 -4400.00000000698 -3400.00000003598 -3320.00000000781 -3720.0000000048 -3760.0000000038 -3880 -3840.0000000024 -3959.99999999853 -3879.99999999379 -3920.00000000605 -4040.00000001266 -4200.0000000024 -4160.00000000878 -4200.0000000008 -4160.00000000077 -4159.9999999961 -3760.0000000072 -3760.00000001481 -4039.9999999952 -3440.00000001175 -2120.00000002653 -2120.00000004128 -3479.99999995675 -2039.99999997475 -2079.99999992772 -2119.99999996672 -4200.00000001089 -4839.99999999904 -4360.00000000045 -4999.99999999803 -4720.00000000597 -4599.9999999976 -4519.99999998706 -4080.00000001338 -2480.00000008672 -4240.00000005524 -4399.99999989905 -5279.9999999957 -5039.9999999896 -5280.00000000219 -599.999999954389 80 -520.000000022351 -1999.99999994791 -1200.00000000701 -1600.0000000096 -1799.99999999756 -2559.99999999522 -2639.99999998561 -3280.00000000969 -3399.99999999516 -2999.99999999753 -3160.00000000738 -3840.00000000982 -4119.99999998081 -2679.99999999233 -3720.00000000498 -3960.0000000024 -3800.00000000263 -4120.00000000265 -4440.00000001014 -4519.99999999461 -4360.00000001535 -3999.99999999966 -1639.99999996888 -719.999999986846 -2679.99999996986 -4920 -4920 -4920 -4920 -4920 -4920 -4920 -4920 -4920 -4920 -4920 -4920 -4920 -4920 -4919.99999996116 -3919.99999995938 -3120.00000000879 -2799.99999993774 -3479.99999997012 -3640.00000001391 -3440.00000002993 -3759.99999998379 -3559.9999999976 -3719.99999998321 -3640.0000000303 -3480.00000002959 -3560.00000003492 -3440.0000000024 -3520.00000000587 -3680.0000000024 -3680.0000000048 -3519.99999999886 -3559.99999999884 -3440.0000000024 -2919.99999998919 -1319.99999998778 1.20962795331429e-08 320 320 280 320.000000006139 320.000000007526 320 320 280 280 320 320 280.000000006321 320 320 320 319.999999995987 200 199.999999997601 160.00000000648 319.999999995896 719.999999991075 680.000000011346 839.999999945658 719.999999989211 639.999999993383 600.000000002399 559.999999997601 519.999999993315 359.999999995691 280.000000002399 240.000000006753 280 239.999999993201 200 79.9999999907572 159.999999997601 119.999999993111 160 -4.53610482509274e-09 -2.39879227592623e-09 39.9999999906208 -120 -40.0000000023988 -40 -119.999999997601 -80 -120 -39.9999999952706 -39.9999999952479 40.0000000047748 120.000000002399 80 119.999999992758 79.9999999976012 40.0000000048885 39.9999999926899 80 2.39879227562898e-09 -40 40.000000007401 680.000000002399 -3320.0000000024 -4920 -4920 -4920 -4920 -4920 -4920 -4920 -4920 -3800 -1639.99999991079 279.999999997601 479.999999982685 359.999999995202 119.999999989836 -160 -160 -160 -240.000000002399 -680.000000025352 -2080.0000000491 -1559.99999998248 -279.999999989654 -160 -119.999999992008 -79.9999999943839 -40 -39.9999999919396 40 40 40 80
