NCOLS 202
NROWS 30
XLLCORNER -174.5
YLLCORNER 25.5
CELLSIZE 0.5 
NODATA_value -9999 
-5009.99999999858 -5000 -5000 -5000 -5010.00000000139 -5000 -5000 -5000 -5000 -5009.99999999864 -5000 -5000 -5000 -5009.99999999838 -5000 -5009.99999999867 -5000 -5000 -5000 -5000 -5000 -5000 -5020.00000000296 -5000 -4990.00000000128 -5009.99999999873 -5000 -5000 -5010.00000000126 -5000 -5000 -5000 -5000 -5000 -5000 -5000 -5000 -4990.0000000012 -4990.0000000012 -5000 -5000 -5000 -5000 -5009.99999999821 -5000 -5000 -5000 -5010.00000000115 -5009.99999999818 -5000 -5000 -5009.99999999887 -5000 -5009.99999999815 -5000 -5000 -5000 -5000 -5000 -5000 -5000 -5000 -5000 -5000 -5000 -5000 -5000 -5009.99999999807 -5029.99999999807 -5010.00000000102 -5010.00000000194 -5000 -5009.99999999899 -5010.00000000196 -5000 -5000 -5020 -5000 -5000 -4880.00000001378 -4680.00000000576 -4569.99999999799 -4519.99999999408 -4560 -4530.00000000094 -4509.99999999797 -4509.99999999907 -4540.00000000112 -4529.99999999908 -4560 -4589.9999999991 -4589.9999999991 -4590.00000000207 -4579.99999999704 -4600 -4580.00000000296 -4540.00000000714 -4539.99999999704 -4520 -4509.99999999915 -4519.99999999873 -4470.00000000084 -4420.00000000296 -4440 -4420 -5010.00000000082 -4989.99999999652 -4400.00000001399 -4140.00000000136 -4459.99999999726 -4429.99999999763 -4559.99999999408 -4689.99999999782 -4789.99999999768 -4600.00000000043 -4530.00000000499 -4269.99999998607 -4059.99999995412 -4290.00000000662 -4369.99999999926 -4520.00000000149 -4759.9999999986 -4840 -4890.00000000071 -5070.00000000071 -4809.99999999323 -4979.99999999112 -4799.99999999093 -4910.00000000545 -4849.99999999316 -4639.9999999796 -4570.00000000229 -4510.00000001976 -4689.99999999934 -4550.00000000492 -4660.00000000888 -4740.00000000089 -4479.99999999535 -4500.00000000296 -4320.00000000125 -4310.00000000358 -4059.99999999184 -4060.00000000174 -4250.00000000708 -4670.00000001063 -4960.00000000474 -5059.99999999704 -5189.99999999942 -5240.00000000181 -5360.00000000182 -5469.99999999944 -5490.00000000056 -5119.99999997508 -4110.00000000647 -4060.00000000296 -4019.99999999514 -2829.99999998001 -2800.00000000087 -2209.99999998835 100.000000010715 289.999999999494 249.999999996538 410.000000001478 500 569.999999996555 820.000000002007 940.000000007941 1040.00000000499 949.99999999842 790.000000000455 869.999999999551 810.000000000443 820.000000002086 1009.99999999747 950.000000002535 909.999999997459 790.000000007168 689.999999999591 790.000000002558 750.000000005525 640.000000002962 550.000000000387 549.999999997419 549.999999999625 600 569.999999997402 570.000000002603 570.000000001904 520.000000002962 470.000000000341 459.999999997709 410.000000002632 409.999999997362 369.999999997357 359.999999994702 360 309.999999999699 279.999999994668 269.99999999971 240 189.999999999721 240.000000002416
-5000 -5000 -5000 -5000 -5000.00000000295 -5000 -5000 -5000 -5010.00000000159 -5000 -5000 -5000 -5000 -5010.00000000161 -5000 -5000 -5010.00000000163 -5000 -5000 -5000 -5000 -5000 -5000 -5000 -5000 -4989.99999999832 -5009.99999999831 -5000 -5000 -5000 -5000 -5000 -5009.99999999877 -5010.00000000122 -5010.00000000173 -5000 -5010.00000000174 -5000 -5000 -5000 -5000 -5010.00000000118 -4990.00000000178 -5009.99999999822 -5000 -5000 -4989.99999999885 -5009.99999999819 -5009.99999999819 -5010.00000000182 -5000 -5000 -5000 -5000 -5000 -5000 -5020 -5000 -4990.00000000108 -5000 -5000 -5000 -5000 -5000 -5000 -5020 -5000 -5000 -5000 -5010.00000000193 -5000 -5009.99999999899 -5000 -5000 -5010.00000000196 -5000 -5000 -4840.0000000059 -4730.0000000029 -4600 -4610.00000000095 -4589.999999998 -4600 -4589.99999999906 -4570.00000000093 -4460.00000000076 -4569.99999999908 -4560 -4589.99999999909 -4600 -4600 -4600 -4600 -4600 -4600 -4569.99999999671 -4539.99999999705 -4540.00000000123 -4530.00000000039 -4490.0000000038 -4510.00000000084 -4520 -4440 -4440 -4400 -4979.99999999705 -4929.99999999975 -4150.00000000055 -4309.99999999649 -4369.99999999647 -4710.00000000549 -4620.00000000295 -4610.00000000372 -4570.00000000808 -4599.9999999942 -4069.99999998744 -4329.9999999713 -3639.99999994552 -3410.00000004202 -4630.00000000372 -4779.99999999705 -4849.99999999777 -4910.00000000375 -4899.9999999941 -5109.99999999929 -5149.9999999948 -5109.99999999479 -5010.00000000226 -4939.99999998027 -4909.99999999797 -4419.99999999893 -4599.99999999676 -4500 -3480.00000000134 -4160 -4140.00000000128 -4450.00000000399 -4609.99999999768 -4549.99999999768 -4259.99999999534 -4150.00000000356 -3989.99999999349 -3770.00000000235 -4149.99999998936 -4549.99999999999 -4920.00000000295 -5030.00000000121 -5209.99999999943 -5310.00000000238 -5399.99999999887 -5420.00000000295 -5350.0000000035 -5220.00000000295 -3939.99999999518 -4000.0000000059 -3939.99999999894 -3899.99999997744 -2590.00000000347 -2719.99999999705 -2179.99999991984 300.0000000049 430.000000003428 580.00000000295 589.999999994583 759.999999999045 890.000000002478 899.99999999705 920.000000000921 1119.99999998707 999.999999985891 709.999999997493 730.000000000438 790.000000000432 890.000000001671 950.000000009697 779.99999999788 749.999999999591 839.999999989006 759.999999996254 839.99999999705 649.999999995259 549.99999999448 549.999999999625 589.99999999963 579.99999999705 569.999999999642 570.000000000352 499.999999997743 480 410.000000004894 410.00000000033 400.000000002302 360 360 350.000000002643 310.000000000301 300 300 230.000000002666 229.999999997328 209.999999996777 229.999999997317
-5000 -5000 -5000 -5000 -5010.00000000138 -5000 -5000 -5010.00000000158 -5000 -5010.00000000159 -5000 -5000 -5000 -5000 -5000 -5000 -5000 -5009.99999999869 -5000 -5000 -5009.99999999871 -5000 -5000 -5009.99999999873 -5000 -5000 -5000 -5000 -5009.99999999831 -5010.00000000124 -5000 -5000 -5000 -5000 -5010.00000000173 -5000 -5000 -5000 -5009.99999999825 -5009.99999999824 -4989.99999999882 -5010.00000000117 -5000 -5019.99999999706 -5000 -5000 -5010.0000000018 -5000 -5010.00000000181 -5000 -5000 -5000 -5000 -5000 -5010.0000000011 -5000 -5000 -5000 -5000 -5000 -5000 -5009.99999999812 -5000 -5000.00000000294 -5010.0000000019 -5000 -5000 -5000 -4989.99999999808 -5000 -5000 -5000 -5010.00000000194 -5010.00000000099 -4880.00000000491 -4769.99999999902 -4680.00000000194 -4600 -4600 -4629.99999999905 -4599.99999999602 -4640 -4629.99999999906 -4620 -4640 -4600 -4600 -4600 -4600 -4619.99999999886 -4610.00000000205 -4649.99999999911 -4600 -4629.99999999913 -4590.00000000207 -4610.00000000207 -4520.00000001175 -4529.9999999891 -4570.00000000209 -4550.00000000084 -4550.0000000021 -4490.00000000505 -4509.99999999789 -4449.99999999788 -4420 -5000 -4230.00000000561 -4220.00000000723 -3920.00000000929 -4380.00000000294 -4719.99999999706 -4660.00000000433 -4410.00000000958 -4430.00000000512 -4479.99999999983 -4429.99999997743 -4019.99999998237 -4269.99999996992 -2479.99999998823 -4070.00000001268 -4820.00000000443 -4830.00000000079 -5029.99999999929 -5050.00000000223 -5199.99999999846 -5089.9999999962 -5150.00000000225 -4890.00000000992 -4910.0000000052 -4809.99999999026 -4779.99999999517 -4259.9999999925 -4469.99999999771 -3789.99999998017 -3820.00000000055 -4170.00000001024 -4570.00000000105 -4550.00000000062 -4580.0000000017 -4539.9999999907 -4329.99999999179 -4319.99999999533 -4319.9999999876 -4799.9999999953 -4820.00000000294 -4989.99999999942 -5009.99999999764 -5189.99999999877 -5309.99999999944 -5330.0000000035 -5210.00000000349 -5060.00000000991 -4839.99999999892 -4900.00000000962 -3889.99999999653 -3989.99999998433 -4209.99999999654 -3389.99999996181 -2720 -1959.99999995736 240.00000000195 390.000000005389 540.000000001006 740.000000001029 860.000000001995 889.999999994588 989.99999999954 899.999999997061 1000.00000001608 910.000000002495 790.000000000438 670.000000002507 700.000000004172 700.000000002939 789.999999997476 739.99999999788 760.000000004263 759.999999994122 910.000000000193 999.999999994895 699.999999997823 579.999999997061 580 610.000000000364 560.000000002939 580 550.000000002592 480 509.999999999665 399.999999997721 380 369.999999999682 329.999999997374 309.999999997368 290.000000002637 310.000000000296 300 280 200 240 299.999999997061 299.999999999477
-5000 -5000 -5000 -5000 -5009.99999999845 -4990.00000000156 -5000 -5000 -5000 -5000 -5000 -5010.00000000159 -5000 -5010.00000000132 -5000 -5009.99999999839 -5000 -5010.00000000163 -5000 -5010.00000000164 -5000 -5000 -5000 -5000 -5000 -5000 -5000 -5009.99999999875 -5000 -5000 -5000 -5000 -5000 -5009.99999999879 -5000.00000000293 -5000 -5000 -5000 -5000 -5000 -5000 -5000 -5010.00000000177 -5020 -5000 -5000 -5020 -5020.00000000293 -5000 -5000 -5000 -5000 -5000 -5000 -5020 -5020.00000000076 -5009.99999999892 -5000 -5009.99999999814 -5010.00000000106 -5010.00000000106 -5009.99999999812 -5000 -5000 -5009.99999999896 -4989.9999999981 -5000 -5000 -5000 -5000 -5000 -5000 -4710.00000000392 -4630.00000000194 -4590.00000000195 -4620.00000000098 -4640 -4629.99999999904 -4629.9999999951 -4640 -4659.9999999931 -4689.99999999906 -4689.999999998 -4689.999999998 -4660.00000000184 -4560.00000000732 -4619.99999999889 -4629.9999999991 -4639.9999999982 -4629.99999999796 -4640 -4670.00000000205 -4609.99999999795 -4600 -4600 -4570.00000000086 -4600 -4580.00000000462 -4600 -4580.00000000126 -4579.99999999873 -4560 -4510.00000000082 -4490.00000000081 -4449.99999999626 -3870.00000001655 -3749.99999999628 -3830.00000000056 -3779.99999999728 -4369.99999999355 -4829.99999999492 -4630.00000000816 -4319.99999997963 -4389.99999998178 -4070.00000001194 -4549.99999999787 -4019.99999997669 -3920.00000001169 -4279.99999997357 -3439.99999999126 -4350.0000000095 -4730.00000000816 -5090.00000000819 -5119.99999999401 -5140.00000000293 -5000.00000000621 -5110.00000001103 -4899.99999999594 -4489.99999998945 -4819.99999997871 -4580.00000003278 -4480.00000000747 -4219.99999998959 -3730.00000000721 -4159.99999999707 -4249.99999999977 -4470.00000000273 -4660.00000000754 -4540.00000000293 -4570.00000000061 -4720.00000000413 -4470.0000000058 -4649.99999999648 -4479.99999999532 -4700.0000000047 -4640.00000000826 -4710.00000000887 -4990.00000000822 -5050.00000000641 -4980.00000000513 -4850.0000000064 -4440.00000000293 -4689.99999999946 -4909.99999999337 -4279.9999999678 -4229.99999999466 -4140 -3729.99999997752 -2829.99999999464 -1779.99999995736 49.9999999975614 280.000000001961 459.999999997073 749.999999998585 940.00000000399 1099.99999999707 1069.99999999753 1019.99999999797 1010.00000000044 860 819.999999997073 809.999999997499 699.999999997073 710.000000002512 660.000000002927 689.999999998283 740.000000002132 790.000000000392 860.000000007236 910.000000005474 729.999999997448 600 600 599.999999997073 549.999999997425 529.999999999653 480 460.000000002927 420 389.999999999676 360 300 289.999999999693 290.000000005554 280.000000000591 269.99999999971 240 170.000000000279 160 190.000000002126 220.000000004809 290.000000003183
-5000 -4989.99999999847 -5000 -5000 -5000 -5000 -5000 -5000 -5010.00000000157 -5009.99999999842 -5000 -5009.99999999841 -5000 -5009.99999999868 -5000 -5000 -5010.0000000013 -5000 -5009.99999999871 -5000 -5000 -5000 -5000 -5000 -5000 -5000 -5000 -5020 -5000 -5000 -5000 -5000 -5009.99999999879 -5019.99999999949 -5000 -5000 -5000 -5009.99999999882 -5000 -5000 -5000 -5000 -5010.00000000115 -5010.00000000115 -5000 -5000 -5000 -5000 -5000 -5000 -5000.00000000362 -5000.00000000221 -5010.0000000011 -5000 -5000 -5000 -5000 -5010.00000000107 -5009.99999999894 -5000 -5000 -5000 -5000 -5000 -5009.99999999897 -5000 -4990.00000000102 -4830.00000001559 -4760.00000001368 -4670.00000000883 -4550.00000000484 -4669.99999999807 -4600 -4589.99999999806 -4610.00000000097 -4660.00000000098 -4699.99999999609 -4699.99999999809 -4670.00000000298 -4749.99999999906 -4740.00000000104 -4720 -4729.99999999907 -4709.999999998 -4689.99999999508 -4650.00000000091 -4629.99999999799 -4629.9999999991 -4640 -4650.00000000203 -4640 -4640 -4630.00000000087 -4609.99999999795 -4600 -4589.99999999915 -4600 -4490.00000002125 -4600 -4600 -4600 -4580.00000000128 -4080.00000003089 -4190.00000000888 -3930.00000000619 -3769.9999999947 -3849.99999999921 -3940.00000000135 -4079.99999999553 -4689.99999999923 -4830.00000000491 -4749.99999999493 -4469.99999999644 -4370.00000000066 -4589.99999999491 -4229.99999999786 -4809.99999999635 -4090.00000000074 -4220.00000001166 -2259.99999999555 -3060.00000004568 -4340.0000000017 -5130.0000000021 -5030.00000000083 -5080.00000000275 -5079.99999999417 -5110.00000000401 -4999.99999999125 -4850.00000000993 -4990.00000000649 -4859.99999996963 -4809.99999999611 -4589.99999999644 -4370.00000001522 -4419.99999999795 -4369.99999999479 -4489.99999999479 -4580.00000001335 -4460.00000000365 -4500.0000000012 -4289.99999999304 -4390.00000000642 -4350.0000000105 -4030.00000000058 -4130.00000000641 -4220.00000001231 -4500.00000000762 -4420.00000001527 -4610.00000001513 -4550.00000000346 -4600.000000004 -4660.00000000078 -4749.99999999841 -5120.00000001331 -5420.00000000188 -4259.99999999708 -4269.99999999658 -3759.99999997701 -2860.00000000193 -1849.99999988887 169.999999994651 239.999999999045 409.999999998585 639.999999987284 820.000000007827 1040.00000000492 1020.00000000381 1040 1020 909.999999997516 780.000000002916 809.999999999579 789.999999998329 709.999999997493 680 690.000000000398 730.000000000392 760.000000002143 830.000000000381 740.000000002916 809.999999998931 600 600 580.000000002916 560 520.000000000682 480 440 419.999999997084 389.999999997402 360 360 309.999999997988 289.999999999704 250.000000003206 230.000000000284 230.000000002637 229.999999999727 179.999999997618 160 130.000000003172 140.000000002916
-5010.00000000139 -5000 -5009.99999999847 -5000 -5000 -5000 -5000 -5000 -5009.99999999866 -5000 -5000 -5000 -5000 -5000 -5000 -5000 -5000 -5009.99999999839 -5000 -5000 -5009.99999999873 -5000 -5000 -5010.00000000165 -5000 -5010.00000000166 -5000 -5000 -5000 -5000 -5009.99999999831 -5000 -5000 -5000 -5000 -5000 -5000 -5010.00000000118 -5000 -5010.00000000174 -5000 -5000 -5000 -5000 -5000 -5010.00000000113 -5000 -5000 -5009.99999999889 -5000 -5000 -5010.00000000181 -5000 -4989.99999999891 -4970.00000000398 -4960.00000000505 -4940.00000000948 -5000 -5000 -5029.99999999895 -5009.99999999895 -4970.00000000312 -5000 -4790.00000000393 -4740.00000000495 -4450.00000001872 -4609.99999999811 -4579.99999999911 -4579.99999999619 -4539.9999999951 -4600 -4630.00000000192 -4630.00000000098 -4699.9999999971 -4680.00000000097 -4729.99999999904 -4760 -4760 -4760 -4760 -4760 -4760 -4729.99999999802 -4720 -4699.99999999891 -4720 -4689.99999999799 -4629.99999999911 -4620.0000000029 -4670.00000000026 -4640 -4650.00000000087 -4670.00000000322 -4639.999999993 -4630.00000000085 -4590.00000000085 -4600 -4609.99999999916 -4620.00000000124 -4600 -4569.99999999918 -4310.000000028 -3960.00000000613 -3910.00000000531 -3929.9999999992 -3969.99999999921 -3990.00000000055 -4080.0000000029 -4140.00000000562 -4769.99999999238 -4810.00000001376 -4849.99999999646 -4600.00000001162 -4419.99999997691 -4350.00000001654 -4479.99999998119 -4489.99999998622 -4109.9999999731 -3550.00000001532 -4449.99999996851 -3129.99999993919 -3270.00000003018 -3860.00000002653 -4950.00000000222 -5020.00000001008 -4879.99999999825 -4819.99999998191 -5159.99999999891 -4389.99999999275 -4940.0000000077 -5040.00000000031 -4779.99999999871 -4690.00000001588 -4739.99999999495 -4630.00000000349 -4749.99999999357 -4649.99999998519 -4369.99999999939 -4380.00000000581 -4340.00000000342 -4110.00000000694 -3919.99999999939 -3860.00000001685 -3490.00000000172 -3580.00000000341 -3600.00000000824 -3810.00000001106 -4010.00000001107 -3950.00000002269 -4060.00000000655 -4189.99999999947 -4520.00000000845 -4960 -5180.00000000084 -5389.99999999949 -5099.99999994243 -4220 -4049.99999998412 -2670.00000001596 -2740.00000000775 280.000000002944 359.999999989325 499.999999997095 700.000000007793 790.000000000455 879.999999999102 890.000000005366 1000.00000000493 999.999999990973 849.999999996669 739.999999996714 820.000000003735 760 749.999999996692 699.999999997095 699.999999994975 740.000000002132 710.000000000381 800.000000002905 789.999999997465 709.999999998187 600.000000000716 540.000000002905 519.999999997095 499.999999997777 489.999999997431 450.00000000033 440 430.000000000318 429.999999996783 389.999999997402 339.999999994793 290.000000000296 240 210.000000000284 169.999999999721 180 180 169.999999997357 149.999999997351 109.99999999975 140
-5000 -4989.99999999862 -5000 -5000 -5000 -5000 -5000 -5000 -5000 -5000 -5000 -5000 -5000 -5000 -5000 -5000 -4990.0000000016 -5000 -5000 -5010.00000000127 -5000 -5000 -5000 -5000 -5000 -5010.00000000124 -5009.99999999834 -5000 -5020 -5010.00000000122 -5000 -5000 -5000.00000000289 -5000 -5000 -5000 -5000 -5000 -5000 -5000 -5000 -5000 -5000 -5000 -5000 -5000 -5000 -5000 -5000 -5000 -4990.0000000018 -4640.00000000223 -4489.99999999819 -4510.00000000471 -4650.00000000033 -4600.00000001233 -4510.00000000838 -4570.00000001052 -5000 -4650.00000000924 -4660.00000000335 -4510.00000000682 -4560.00000000084 -4489.99999999898 -4489.99999999812 -4540.00000000261 -4529.99999999811 -4629.999999999 -4580.0000000009 -4609.9999999952 -4650.00000000006 -4689.99999999519 -4689.99999999713 -4729.99999999903 -4690.00000000096 -4689.99999999905 -4760 -4740.00000000101 -4779.99999999711 -4789.99999999907 -4790.00000000093 -4770.00000000092 -4750.00000000091 -4729.99999999909 -4739.99999999891 -4729.999999998 -4710.00000000089 -4660.00000000112 -4640 -4700.00000000404 -4680 -4650.00000000086 -4640 -4629.99999999796 -4629.99999999795 -4640 -4610.00000000084 -4620.00000000123 -4629.99999999918 -4510.00000000409 -4050.0000000066 -3829.9999999963 -3949.9999999992 -4000 -4059.99999999842 -4109.99999999632 -4140 -4230.00000000347 -4040 -4849.99999999787 -4399.99999999927 -4909.99999999786 -4709.99999999215 -4509.99999998775 -4109.99999999495 -4569.99999999061 -4380.00000000289 -4570.00000000215 -4359.9999999798 -4079.99999998984 -4460.00000000757 -5109.99999999201 -4469.9999999515 -5040.00000000136 -4889.9999999947 -4940.00000000268 -4779.99999999421 -4870.00000000066 -4890.00000001092 -4880.00000000768 -4700.00000000257 -4409.99999997494 -4600.00000001157 -5059.99999999796 -5040 -4989.99999999483 -4829.9999999869 -4719.99999999421 -4709.9999999943 -4449.99999999888 -4279.99999998898 -4019.99999999017 -3629.99999999653 -3860.00000000062 -3709.99999999124 -3619.99999999065 -3160.000000004 -3220.0000000018 -3430.00000000127 -3840.00000000258 -4140.00000000734 -4580.0000000008 -4880.00000000372 -5309.9999999937 -5459.99999999233 -5210.00000001886 -4199.9999999952 -3889.99999996874 -2349.99999998793 -2729.9999999966 450.000000011164 369.999999984874 430.000000009271 410.000000007316 580.000000002893 830.00000000245 870.000000000438 940.000000001165 1019.99999999796 949.999999997527 730.000000002478 799.999999999181 950.000000000403 769.999999999602 730.000000000392 690.000000002507 689.999999994594 720.000000005036 680.000000000739 699.999999997834 679.999999999284 589.99999999527 529.999999997453 550.000000000341 520 520 520 510.000000000318 480 410.000000000307 400 339.999999997107 310.000000003183 289.999999997391 219.999999997664 200 150.000000000267 170.000000000261 160 129.99999999975 130.000000000244 110.000000000239
-5000 -5009.99999999863 -5000 -5000 -5010.00000000135 -5000 -5000 -5009.99999999866 -4990.00000000155 -5009.99999999844 -5000 -5000 -5000 -5000 -5000 -5010.00000000129 -5000 -5000 -5000 -5000 -5000 -5000 -5000 -5000 -5009.99999999836 -5000 -5000 -5000 -5009.99999999878 -5000 -5000 -5000 -5020 -5000 -5000 -5009.99999999882 -5000 -5009.99999999883 -5000 -5000 -5009.99999999885 -5000 -5009.99999999825 -5000 -5000 -5010.00000000176 -5000 -5000 -5000 -5010.00000000178 -4539.9999999993 -4469.99999999962 -4580.00000000288 -4569.99999998876 -4600 -4520 -4489.99999999817 -4490.00000000105 -5000 -4560 -4509.99999999815 -4520 -4470.00000000186 -4609.99999999983 -4509.99999999899 -4619.99999999712 -4689.99999999612 -4669.99999999811 -4680 -4700 -4659.99999999526 -4650.00000000191 -4710.00000000191 -4739.99999999712 -4750.00000000002 -4739.99999999902 -4770.00000000094 -4760 -4800 -4779.99999999712 -4790.00000000196 -4769.99999999909 -4779.99999999894 -4730.0000000009 -4739.9999999982 -4760 -4729.999999998 -4710.000000002 -4720 -4689.99999999799 -4669.99999999798 -4650.00000000086 -4640 -4660.00000000288 -4640 -4620 -4600.0000000041 -4510.000000007 -4060.00000000452 -3839.99999999712 -3929.99999999758 -3979.99999999584 -4089.99999999374 -4090.00000000367 -4139.99999999869 -4170.0000000021 -4209.99999999634 -4270.00000001192 -4159.99999999712 -4820.00000000562 -4969.99999999925 -4919.99999999572 -4789.99999999061 -4769.99999999638 -4659.99999999712 -4430.00000000217 -4260.00000000288 -4429.99999999637 -4600.00000000301 -5050.00000000646 -5189.99999999931 -5160 -5130.00000000068 -4930.00000000238 -4980.00000000288 -4870.00000000222 -4699.99999999531 -4869.99999999935 -4770.00000000541 -4820.00000000097 -4849.99999999581 -4629.99999998479 -5059.99999999712 -5069.99999999814 -5229.9999999965 -5199.99999999545 -5209.99999999484 -5139.99999999592 -5069.99999999313 -4839.99999999829 -4639.99999998331 -4599.9999999925 -4369.99999999488 -4060.00000000077 -3909.99999999591 -3759.9999999889 -3329.9999999919 -3400.00000000072 -3430.00000000416 -4089.99999999736 -4479.99999999791 -4700.00000000369 -4980.00000000186 -5360.00000000763 -5449.99999999762 -5269.99999998617 -4239.99999995018 -4250.00000000048 -3199.99999993651 -2500.00000000288 160.000000023226 630.000000002422 140.000000007736 450.000000006401 380.000000002882 500.00000000777 730.000000003604 810.000000002456 960.000000009845 1000.00000000083 809.999999994645 939.999999997118 1010.00000000328 849.999999995413 680 710.000000002501 670.000000000375 669.999999998226 629.999999995327 630.000000007571 720.000000007236 730.000000000347 629.999999997459 600 560 520.000000002234 530.000000000318 499.999999999375 500.000000002268 440 350.000000000296 330.00000000029 310.000000000284 269.999999999721 209.999999997391 180.000000002882 169.99999999738 139.99999999763 140.000000002382 130.000000002638 129.999999997357 100
-5010.0000000015 -5000 -5000 -5000 -5000 -5000 -5000 -5000 -5000 -5000 -5000 -5009.99999999844 -5010.00000000157 -5000 -5000 -5000 -5000 -5009.9999999984 -5000 -5000 -5009.99999999874 -5000 -5000 -5009.99999999876 -5010.00000000164 -5000 -5009.99999999835 -5000 -5010.00000000166 -5009.99999999833 -5000 -5000 -5010.00000000168 -5000 -4999.99999999948 -5000 -5000 -5000 -5009.99999999828 -5000 -5009.99999999886 -5000 -5009.99999999826 -5000 -5000 -5009.99999999889 -5009.99999999824 -5000 -4900.00000001097 -4590.00000000109 -4490.0000000104 -4549.9999999975 -4630.00000000322 -4559.99999999933 -4709.99999999819 -4549.99999999683 -4620.00000000364 -4610.0000000047 -5000 -4610.00000000184 -4579.99999999713 -4619.99999999713 -4589.99999999528 -4669.99999999696 -4680.00000000201 -4670.00000000187 -4729.99999999812 -4720 -4730.00000000189 -4720 -4790.0000000019 -4669.99999999997 -4720.00000000095 -4779.99999999617 -4790.00000000192 -4800 -4770.00000000094 -4800 -4800 -4790.00000000195 -4759.99999999792 -4779.99999999713 -4789.9999999991 -4749.99999999803 -4750.00000000089 -4750.00000000089 -4500.00000000816 -4510.00000002146 -4720 -4690.00000000086 -4649.99999999799 -4640 -4640 -4680.00000000406 -4220.00000000549 -4119.99999999713 -4090.00000000534 -3989.99999999631 -3969.99999999383 -4029.99999999919 -4040.00000000127 -4039.99999999585 -4130.0000000005 -4250.00000000339 -4199.99999999582 -4209.99999999923 -4410.00000000344 -4300.00000000422 -4300 -4800.00000000437 -4989.99999999926 -4880 -4869.99999999927 -4830.00000000073 -4690.00000000216 -4370.00000000071 -4029.99999999213 -4300.00000000725 -4770.00000000806 -4959.99999999574 -5129.99999999632 -4959.99999999383 -5000.00000002178 -5089.99999999933 -4620.00000002822 -4800.00000000574 -4649.99999999491 -4650.00000000509 -4759.99999999713 -4729.99999999297 -4879.99999999713 -5049.99999999937 -5179.99999999589 -5269.99999999939 -5369.99999999652 -5460.00000000167 -5409.99999999653 -5389.99999999485 -5329.99999999144 -5219.99999999542 -5139.99999999426 -5009.99999999483 -4939.99999999538 -4789.99999998843 -4419.99999999316 -4179.99999999644 -3759.9999999896 -3770.00000000667 -3879.99999998746 -4620 -4819.99999999035 -4979.99999999918 -5150.00000000507 -5489.99999999763 -5470.00000000238 -5439.99999999713 -5529.99999999952 -4289.99999999856 -3129.99999998026 -2359.99999999318 -2160.00000001408 390.000000017963 129.999999978928 350.00000000154 449.999999992701 360.000000004877 510.000000000426 770.000000004479 980.000000009823 1139.99999999344 1050.00000000247 969.999999993861 1049.99999998969 970.000000001711 889.999999988313 779.99999999576 630.000000001108 649.999999997493 670.000000000358 549.999999997482 689.999999995299 690.000000003212 670.000000005406 640 560 490.000000000318 519.999999997129 510.00000000195 470.000000000301 440 330.000000002581 300 240.000000002313 160 180.000000002871 140.000000002871 129.999999999744 130.000000005491 119.999999999511 110.000000000239 130.000000000233 70.0000000002274
-5000 -5000 -5000 -5009.99999999849 -5000 -5000 -5000 -4989.99999999868 -5000 -5000 -5000 -5010.0000000013 -5019.99999999714 -5000 -5000 -5010.00000000158 -5000.00000000255 -5000 -5000 -5000 -5000 -5000 -5000 -5000 -5000 -5000 -5000 -5000 -5010.0000000012 -5010.00000000166 -4990.00000000119 -5000 -5000 -5000 -5000 -5000 -5019.99999999714 -5019.99999999945 -5009.99999999829 -5000 -5000 -5000 -5000 -5000 -5000 -5000.00000000286 -5000 -4660.00000000352 -4589.99999999319 -4629.99999999823 -4470.00000000242 -4669.99999999821 -4620.00000000072 -4649.99999999395 -4730.0000000018 -4579.99999999218 -4709.99999999895 -4709.99999999532 -4950.00000000517 -4719.99999999634 -4689.99999999816 -4649.99999999898 -4719.99999999916 -4720 -4730.00000000014 -4729.99999999814 -4769.99999999901 -4749.99999999902 -4779.99999999714 -4800 -4750.00000000004 -4739.99999999906 -4789.99999999905 -4820.00000000096 -4800 -4800 -4830.00000000193 -4840.00000000185 -4820.00000000102 -4800 -4809.99999999909 -4800 -4789.9999999991 -4809.99999999803 -4660.00000001035 -3889.9999999934 -3730.00000000484 -3919.99999999938 -4709.99999999914 -4709.999999998 -3799.99999999483 -4100.00000002404 -4420.00000000202 -3950.00000000585 -3939.99999999548 -4099.99999999593 -4099.99999999878 -4059.99999999714 -4150.0000000033 -3980.00000000251 -4130.0000000008 -4190.00000000207 -4179.9999999917 -4290.00000000052 -4409.9999999922 -4459.99999999317 -4470.00000000496 -4550.00000000076 -4379.99999998542 -4949.99999999217 -4929.99999999235 -4909.99999999927 -4989.99999999782 -4820.00000000286 -4669.99999999643 -4229.99999999354 -4050.00000001077 -4399.9999999986 -4810.00000000372 -4889.9999999991 -4280.00000003769 -5069.999999996 -3069.99999995376 -3620.00000006922 -3240.00000006952 -4320.00000000751 -4529.99999999623 -4500.00000000029 -4619.99999999714 -4789.99999999811 -5079.99999999714 -5219.99999999876 -5380 -5359.99999999671 -5410.00000000677 -5450.00000000559 -5489.99999999941 -5439.99999999883 -5429.99999999486 -5489.99999999943 -5419.99999999886 -5379.99999999827 -5189.99999999944 -5069.99999999308 -4749.99999998625 -4589.99999999482 -4309.9999999798 -4509.99999999375 -4529.99999999711 -4830.00000000313 -4990.00000000969 -5329.99999999092 -5300.00000000744 -5460.00000000473 -5569.99999999763 -5559.99999999714 -5620.0000000019 -4499.99999996844 -3620.00000002667 -2979.99999991098 -2640.00000000286 -1469.99999982014 920.000000002859 229.999999998454 590.000000005554 289.999999994708 460.000000005718 740.000000003229 1089.99999999755 1240.00000001187 1269.99999999754 1099.99999999636 1020.00000000441 899.999999997141 939.999999997891 899.9999999929 679.999999995737 640.000000002859 550.000000005366 559.999999992116 649.999999999659 610.000000005383 559.9999999978 550.000000000324 480 440 420.000000002859 420.000000002859 409.999999995168 379.999999997721 340.000000002859 249.999999995117 200.000000002314 150.000000000267 109.999999997402 109.999999997397 100 89.9999999973852 90.0000000002387 59.9999999995339 70.0000000026318 90.0000000026375
-5000 -5000 -5000 -5009.99999999866 -5000 -5000 -5000 -5000 -5000 -5029.99999999869 -5000 -5000 -5000 -5010.00000000128 -5000 -5000 -4989.99999999842 -5000 -5000 -5000 -5010.0000000016 -5010.00000000124 -5000 -5000 -5010.00000000122 -5010.00000000163 -5000 -5009.9999999988 -5000 -5000 -5000 -5009.99999999882 -5000 -5009.99999999883 -5010.00000000168 -5000 -5000 -5009.99999999885 -5000 -5000 -5000 -5000 -5000 -5010.00000000173 -5010.00000000111 -4640.00000002811 -4479.99999999472 -4780.00000000503 -4510.00000000109 -4729.99999999823 -4599.99999999285 -4720 -4719.99999999787 -4669.9999999904 -4730.00000000031 -4720 -4750.00000000258 -4689.99999999249 -4859.99999999162 -4690.00000000263 -4709.99999999736 -4710.00000000184 -4780 -4780 -4780.00000000285 -4800 -4809.99999999902 -4800 -4800 -4809.99999999903 -4750.00000000189 -4770.00000000474 -4829.99999999905 -4860.00000000285 -4820.00000000097 -4849.99999999907 -4829.99999999907 -4840 -4840 -4830.00000000194 -4840 -4840.00000000285 -4700.00000000251 -3889.99999999981 -3600.00000000109 -3650.00000000372 -3639.99999999604 -3990.00000000422 -4019.99999999602 -3769.99999998772 -3770.0000000117 -3989.99999999618 -3979.99999999715 -4080 -4160.00000000525 -4209.99999999797 -4170.00000000326 -4260.0000000037 -4209.9999999992 -4249.99999999007 -4349.99999999636 -4429.99999999637 -4350.00000000051 -4520.00000001269 -4529.99999999923 -4549.99999998805 -4500.00000000872 -4260.00000000554 -4420.00000000381 -4830.00000000939 -4979.99999999879 -5049.99999999933 -5000 -4839.99999999575 -4499.99999999715 -4319.99999999143 -4290.0000000008 -4540.00000000154 -4870.00000000226 -5019.99999999864 -4959.99999998427 -3940.00000000167 -3979.9999999831 -2810.00000001748 -3919.999999995 -4340.0000000044 -4330.0000000022 -4400.00000000157 -4639.99999999841 -4910.00000000667 -5150.00000000384 -5239.99999999553 -5300 -5360.00000000329 -5440.00000000331 -5480.00000000167 -5529.99999999774 -5529.99999999773 -5540.0000000017 -5560 -5510.00000000056 -5260.00000000619 -5369.99999999596 -5299.99999999715 -5169.99999999131 -4900.00000000071 -4800.00000000358 -4790.00000000488 -4999.99999999612 -5269.99999999949 -5199.99999999715 -5379.99999999715 -5399.99999999628 -5559.99999999902 -5569.99999999667 -5610.00000000237 -5609.99999999953 -5369.99999994522 -4179.99999999154 -4280.00000000388 -2549.9999999889 -2779.99999999893 360.000000007668 279.999999993184 260.000000007691 349.999999995566 350.000000008487 750.00000000162 1010.0000000004 1209.99999999675 1340.00000000078 1140.00000000907 1090.00000000247 899.999999995054 860 790.00000000818 609.999999998226 560.000000004991 559.999999999307 610.000000004672 679.999999995646 539.999999998471 500.0000000022 619.999999997152 599.999999995555 440 359.999999994907 390.000000002552 340.000000002848 350.000000000284 280 230.000000000273 220.000000002848 170.000000005434 120 100.000000002848 89.9999999973966 99.9999999971521 100.00000000523 100.000000002848 60.0000000024045 89.999999999784
-5000 -5000 -5000 -5009.9999999985 -4989.99999999867 -4989.99999999849 -5000 -5000 -5000 -5000 -5000 -5009.99999999845 -5000 -5009.99999999844 -5000 -5010.00000000127 -5000 -5010.00000000158 -5000 -5000 -5000 -5000 -5000 -5009.99999999878 -5000 -5009.99999999837 -5000 -5000 -5000 -5000 -5000 -5009.99999999834 -5010.00000000117 -5009.99999999883 -5009.99999999832 -5000 -5000 -5000 -5000 -5000 -5000 -5000 -5000 -4890.00000000147 -4779.99999999716 -4819.99999999845 -4840 -4900 -4510.00000000595 -4640.00000000498 -4690.0000000032 -4720 -4709.99999999894 -4709.99999999538 -4749.99999999598 -4799.99999999849 -4700.00000000644 -4890.00000000286 -4859.99999999684 -4770.00000000262 -4800 -4800 -4809.99999999616 -4819.99999999915 -4820.00000000284 -4820.00000000284 -4740.00000000195 -4780 -4809.99999999903 -4800 -4820.00000000284 -4739.99999999433 -4869.99999999999 -4880 -4840 -4909.99999999809 -4900.00000000383 -4880 -4909.99999999807 -4860.00000000284 -4850.00000000194 -4699.99999999474 -3590.0000000172 -3539.99999999716 -3629.99999999912 -3689.99999999126 -3750.00000000197 -3809.9999999969 -3920.00000000567 -3769.99999999974 -3940.00000000115 -4079.99999999833 -4170.00000000367 -4280.00000000805 -4269.99999999678 -4290.00000000081 -4350.00000000325 -4390.00000000043 -4339.99999999716 -4249.99999999986 -4320.00000000567 -4319.99999999305 -4450.00000000155 -4409.99999999249 -4640.00000000415 -4490.00000000624 -4419.99999998348 -4509.99999999089 -4649.99999998927 -4879.99999998445 -4980.00000000698 -5030.00000000072 -4989.99999999504 -4900.00000000284 -4609.99999999787 -4439.99999999433 -4489.99999999647 -4880 -4919.99999999853 -4830.000000005 -4940.00000000134 -4269.99999997514 -4700.00000000152 -4129.99999999912 -4040.00000000721 -4200 -4069.99999999653 -4400 -4629.99999999937 -4910.00000000505 -5050.00000000222 -5150.00000000344 -5260.00000000163 -5429.99999999776 -5480 -5490.00000000225 -5520 -5540 -5550.00000000057 -5449.99999999773 -5539.99999999828 -5489.99999999772 -5460.00000000284 -5350.0000000023 -5299.99999999893 -5149.99999999769 -5099.99999999612 -5160.0000000036 -5280.00000000181 -5360.00000000182 -5419.99999999716 -5440 -5439.99999999814 -5570.00000000139 -5600 -5620.00000000189 -5570.0000000033 -5569.99999999954 -4509.99999997278 -4310.00000000239 -3009.9999999384 -2450.00000000632 230.000000000432 320.000000005673 99.9999999971635 230.000000007265 140.000000002836 370.000000009328 920.000000010999 1230.00000000166 1360.00000000413 1149.99999999733 1030.00000000038 960.000000000739 809.999999990473 609.999999997522 529.999999997516 469.999999999653 570.000000002495 630.000000003996 640 600 560.000000005673 659.999999994952 610.000000000921 409.999999995231 309.999999997459 240.00000000058 230.000000000284 220.000000002836 199.999999997709 160 159.999999997686 110.000000002581 89.9999999997499 100 49.9999999997613 29.9999999950262 10.0000000026091 0 0 0
-4990.00000000148 -5009.99999999852 -5000 -5000 -5009.99999999867 -5000 -5000 -5000 -4989.9999999987 -5000 -5000 -5000 -5000 -5000 -5000 -5000 -5009.99999999874 -5000 -5000 -5000 -5000 -5000 -5000 -5000.00000000039 -5000 -5010.00000000162 -5000 -5000 -5000 -5000 -5000 -5009.99999999835 -5000 -5009.99999999884 -5000 -5000 -5000 -4850.00000000741 -3520.00000007346 -4790.00000000055 -4689.9999999943 -4440.00000000565 -4459.99999998974 -4719.99999999717 -4760 -4809.99999999891 -4810.00000000043 -4819.99999999501 -4829.99999999395 -4769.99999999824 -4779.99999999717 -4810.00000000177 -4780.00000000282 -4750.0000000046 -4799.99999999078 -4739.99999999718 -4759.99999999923 -4939.99999999951 -4820.00000000486 -4790.00000000181 -4809.99999999818 -4809.999999999 -4799.99999999718 -4819.99999999915 -4800 -4859.99999999913 -4850.00000000185 -4909.99999999903 -4860.00000000294 -3939.99999999435 -3940.00000000375 -3959.99999999717 -3969.99999999719 -3929.99999999907 -3990.0000000019 -3939.99999999238 -4350.00000003132 -4670.00000002634 -4790.00000001503 -4770.00000001708 -4420.00000001353 -3530.00000000194 -3529.99999999806 -3699.99999999717 -3799.99999999826 -3869.99999999804 -3909.99999999914 -4009.99999999915 -4059.99999999717 -4039.99999999435 -3939.99999999885 -4019.99999999202 -4239.99999999317 -4349.99999998833 -4350.00000000364 -4440.00000000081 -4449.9999999992 -4530.00000000732 -4489.99999998599 -4540.00000000157 -4380.0000000076 -4469.99999998947 -4739.99999999435 -4660.00000001086 -4779.99999999869 -4689.9999999966 -4509.99999998826 -4930.00000000356 -4980.00000000032 -5149.99999999362 -5030.0000000021 -5050.00000000215 -4930.00000000071 -4830.00000000212 -4580.00000000425 -4570.00000000352 -4490.00000001206 -4750.00000000351 -4790.00000000645 -4770.00000000364 -4780.00000000282 -4719.99999999981 -4220.00000001868 -4139.99999999518 -3390.00000003376 -3960 -4209.99999999811 -4380 -4680.00000000724 -4820 -5050.00000000383 -5200.00000000444 -5280.00000000446 -5439.99999999882 -5480 -5500.00000000167 -5520 -5560 -5529.99999999774 -5539.99999999829 -5520 -5520 -5449.99999999946 -5419.99999999717 -5349.99999999665 -5359.99999999717 -5349.99999999948 -5329.99999999949 -5359.99999999899 -5440 -5469.9999999995 -5570.00000000701 -5560 -5610.00000000048 -5600 -5649.99999999764 -5680 -5649.99999999763 -5589.99999999852 -4340.00000000194 -4239.9999999961 -2619.99999999827 -1129.99999989839 150.000000006372 259.999999991189 -4.01314537157305e-09 109.99999999556 310.000000004456 710.000000004474 1110.00000001579 1179.99999999717 1140 889.99999999963 999.999999999272 839.999999999284 660 569.99999999539 499.999999997857 569.999999999665 570.000000002495 550.000000007503 470.000000000318 540 589.999999998096 400.000000001205 320.00000000565 250.00000000029 190.000000000284 160.000000002268 150.000000000273 139.999999994884 100.000000002825 99.9999999971749 49.999999997425 9.99999999790816 9.99999999741362 0 2.82511791738216e-09 0 0 0 2.41584530158434e-09
-5009.99999999853 -5000 -5000 -5000 -5000 -5000 -5000 -5000 -5000 -5000 -5000 -5020.00000000281 -5000 -5000 -5000 -5000 -5000 -5000 -5000 -5000 -5000 -5000 -5000 -5009.9999999984 -5000 -5000 -5000 -5009.99999999881 -5000 -5020 -5000 -5010.00000000165 -5000 -5000 -5000 -5029.99999999886 -4960 -4340.00000000701 -3380.00000000675 -4460.00000004783 -4319.99999999671 -4360.00000000503 -4540 -4380.00000003844 -4400.00000002154 -4179.99999999437 -4819.99999999719 -4860.00000000281 -4849.99999999825 -4809.99999999756 -4789.99999999894 -4769.99999999966 -4779.99999999719 -4819.99999999719 -4819.99999999719 -4800 -4800 -4980.00000000078 -4820.00000000563 -4800 -4819.99999999919 -4809.999999999 -4819.99999999719 -4840.00000000197 -4840 -4889.99999999816 -4899.99999999719 -4920 -4870.00000000186 -4269.99999998034 -4409.99999999346 -4409.99999999625 -4129.99999998863 -3649.99999999722 -3630.00000000189 -3670.00000001498 -3830.00000003519 -3889.9999999999 -3870.0000000091 -3909.99999999705 -3299.99999999437 -3420.00000000492 -3709.99999999806 -3850.0000000002 -3909.99999999978 -3990.00000000587 -4109.99999999804 -4080.00000000393 -4109.99999999803 -4259.99999999604 -4329.99999999354 -4309.99999998724 -4529.99999998649 -4190.00000000037 -4550.00000000842 -4560.00000000402 -4249.99999998954 -4349.99999999181 -4679.99999999188 -4639.99999999844 -4749.99999999923 -4800.00000000281 -4839.99999999719 -4760.0000000026 -4669.99999999681 -4539.9999999957 -4770.0000000077 -4899.99999999572 -4860.00000000543 -4939.99999999733 -5009.99999999652 -4949.99999999929 -4890.0000000007 -4770.0000000007 -4509.99999999927 -4220.00000001551 -4350.0000000035 -4440.00000000427 -4670.00000000509 -4719.99999999852 -4630.00000000066 -4499.99999999699 -3890.0000000156 -3939.99999998826 -3220.0000000418 -3610.00000001189 -4020.00000001032 -4310.0000000094 -4560 -4780.00000000441 -4960.00000000442 -5169.9999999994 -5310.00000000385 -5470.00000000223 -5460 -5490.00000000391 -5509.99999999775 -5550.00000000225 -5549.99999999944 -5550.00000000226 -5550.00000000055 -5489.99999999773 -5460.00000000281 -5499.99999999719 -5489.99999999948 -5459.99999999719 -5499.99999999719 -5419.9999999982 -5469.99999999769 -5490.00000000232 -5520.00000000184 -5580.00000000651 -5600 -5570.00000000234 -5669.99999999953 -5659.9999999981 -5640 -5599.99999999719 -5610.00000000607 -5459.99999995442 -4319.99999999805 -2819.99999999633 -2619.99999999408 -70.0000000042405 120.000000007981 70.0000000032173 170.000000002416 170.000000000392 270.000000004468 739.999999998477 930.000000004502 1059.99999999437 860.000000002086 1010.00000000737 929.99999999543 859.999999995066 670.000000000341 529.999999997522 480 559.999999996538 449.999999997505 460.000000000625 539.999999999386 450.000000002512 360.000000000591 170.000000002524 240.000000002245 120.000000000557 110.000000000273 120 89.9999999974477 30.0000000007674 30.0000000025636 20.0000000028137 -9.99999999976126 0 20.0000000028137 0 0 0 0 0
-5000 -4980.00000000014 -5000 -4990.00000000132 -5000 -5000 -5000 -4980 -5010.00000000151 -5000 -5000 -5000 -5000 -5000 -5000 -5000 -5000 -5000 -5019.9999999972 -5000 -5000 -5000 -5000 -5009.9999999984 -5000 -5000 -5000 -5020.00000000044 -5009.99999999882 -5010.00000000163 -5029.99999999603 -5010.00000000116 -4990.00000000115 -5039.99999999949 -5069.99999999834 -5129.99999999273 -5029.99999999607 -3829.99999999736 -2310.00000001793 -3229.99999998933 -4549.999999994 -4420.0000000028 -4359.99999999939 -4519.99999999782 -4480.00000000028 -4309.99999999764 -4189.99999999762 -4489.99999999437 -4880.00000000135 -4859.99999999789 -4840 -4840 -4819.9999999972 -4790.00000000177 -4790.00000000177 -4800.00000000356 -4840 -5010.00000000101 -4819.99999999921 -4780 -4809.99999999819 -4819.99999999918 -4840 -4839.99999999804 -4869.99999999817 -4920 -4930.00000000184 -4630.00000002605 -4909.99999999534 -4629.99999998876 -4900.00000000278 -4590.0000000224 -3870.00000000188 -3799.99999999632 -3849.99999999348 -2749.99999996708 -3769.9999999925 -3620.00000000683 -3539.9999999972 -3270.00000000089 -3280.00000000113 -3410.00000000368 -3420.00000000667 -3839.99999999892 -3959.99999999503 -3999.9999999972 -4070.00000000476 -4100 -4460.00000000614 -4499.99999999668 -4419.99999998599 -4109.99999999125 -4339.99999999837 -4520.0000000028 -4550.0000000048 -4339.99999999197 -4229.99999998728 -4710.00000000325 -4790.00000000514 -4710.00000000077 -4619.99999999566 -4710.00000000204 -4549.99999999622 -4549.99999999384 -5029.99999999461 -5010.00000000487 -4949.99999999539 -4999.99999999396 -4810.0000000115 -4880 -4990.00000000071 -4890.00000000211 -4829.99999999789 -4559.99999999717 -4399.99999999852 -3989.99999999644 -4020.0000000085 -4290.00000000359 -4310.0000000132 -4649.99999999786 -4580.0000000086 -4460.00000000259 -3959.9999999944 -3160.00000001452 -2680.00000002578 -1909.99999999782 -2900.00000001817 -4190.00000001217 -4410.00000000938 -4649.9999999978 -4910.00000000542 -5090.00000000103 -5260.00000000163 -5399.99999999884 -5459.9999999972 -5509.99999999943 -5529.99999999944 -5549.99999999944 -5550.00000000055 -5510.00000000055 -5469.99999999601 -5460.0000000028 -5480 -5509.99999999772 -5580.00000000177 -5559.99999999644 -5529.9999999977 -5489.9999999977 -5380 -5419.99999999818 -5510.00000000048 -5600 -5540.00000000091 -5620.00000000187 -5649.99999999766 -5339.99999999523 -5630.00000000235 -5589.99999999189 -5620 -5550.00000000431 -5149.99999994828 -3869.99999996595 -2620.00000000083 -2130.00000000765 600.000000005605 360.000000004013 59.9999999915928 189.99999999884 300.000000011727 680.000000002802 1040.0000000028 1069.99999999549 1079.99999999166 1119.9999999993 1120 979.999999992957 749.999999998204 559.999999995055 430.000000000324 329.999999999682 339.999999997198 360 430.000000010306 340.000000007225 200.000000002802 139.999999997198 100.000000002245 120 100 89.9999999951796 69.9999999997442 49.9999999974477 -20.0000000023135 0 -9.99999999743068 5.15001374878921e-09 0 0 0 0 0 0
-5000 -5000 -5000 -5009.99999999852 -5010.00000000148 -5000 -5009.9999999987 -5000 -5000 -5000 -5019.99999999721 -4970.00000000152 -5000 -5009.99999999874 -5019.9999999975 -5009.99999999845 -5000 -5020.00000000032 -5009.99999999877 -4999.99999999756 -5029.99999999843 -4970.00000000158 -4980.00000000279 -5029.99999999841 -4989.99999999881 -5070.0000000016 -5089.99999999839 -5030.0000000044 -5020.00000000279 -5059.99999999442 -5089.99999999884 -5230.00000000115 -5130.00000000624 -5070.00000000774 -5060.00000000558 -5090.00000000777 -5070.000000005 -4789.9999999894 -3859.99999996639 -2670.00000001825 -4749.99999999831 -4529.9999999983 -4329.99999999211 -4299.99999999566 -4370.00000000855 -4219.99999999743 -4100.00000000083 -4070.00000002113 -4710.00000001983 -4870.00000000174 -4859.99999999721 -4889.99999999754 -4840 -4829.99999999824 -4800 -4849.99999999898 -4920 -5000 -4859.99999999642 -4860.0000000008 -4869.9999999982 -4850.00000000098 -4900.00000000279 -4900.00000000279 -4670.00000002694 -4909.9999999973 -4179.99999999721 -4080.00000000659 -4280.00000000837 -4480.00000001675 -4409.99999998791 -4240.00000001583 -4049.99999999718 -4069.99999999822 -4049.99999999351 -3989.99999999811 -3839.99999999621 -3829.9999999981 -3659.99999999517 -3559.99999999515 -3519.99999999059 -3370.00000000192 -3389.99999999701 -3630.00000000902 -3889.99999999418 -4159.99999998545 -4169.99999999748 -4300.00000000613 -4389.99999999804 -4420.00000000165 -4409.99999998802 -4480.00000000279 -4259.99999999324 -4310.00000001832 -4289.99999999083 -4459.99999999442 -4700.00000000401 -4709.99999999396 -4670.00000000077 -4690.00000000635 -4680.00000000127 -4690.0000000061 -4640.00000000408 -4490.00000000205 -4979.99999999869 -4960.00000000411 -4800.00000000861 -4539.99999999885 -4750.00000000072 -4929.99999999655 -4930.0000000007 -4880.00000000279 -4780.00000000279 -4530.00000000206 -4179.99999999715 -3819.99999999712 -3660.00000000279 -4070.00000000505 -4380.00000001411 -4559.99999999703 -4459.99999999701 -4279.99999999849 -3849.99999999354 -2939.9999999883 -2249.99999999109 -1659.99999999845 -2790.00000003243 -4390.00000000362 -4449.99999999343 -4649.99999999702 -4800.00000000161 -5060.00000000162 -5250.00000000105 -5380.00000000164 -5480 -5520 -5489.99999999777 -5479.99999999721 -5499.9999999983 -5449.99999999775 -5500.00000000107 -5449.99999999947 -5500.00000000174 -5540.00000000176 -5589.99999999772 -5529.99999999771 -5490.0000000005 -5450.0000000005 -5360.0000000046 -5440.00000000462 -5560 -5509.99999999493 -5560 -5570.00000000699 -5450.00000000786 -5600 -5550.00000000603 -5649.99999999956 -5590.00000000515 -5140.00000002101 -4579.99999999973 -4469.99999994203 -2899.9999999361 -2250.00000000915 140.000000065415 339.999999987267 240.000000002791 -39.9999999992383 230.000000012079 490.000000007264 1010.00000000243 1280 1149.99999999477 1090.00000000104 1029.99999999197 879.999999995089 790.00000000033 609.99999999539 459.999999997846 349.999999999687 369.999999996902 410.000000001506 309.999999999704 279.99999999942 259.999999992195 179.99999998995 119.999999995509 60.000000002791 40 50.0000000025352 50.0000000002501 0 -19.999999997209 -49.9999999997669 -9.99999999743636 -59.999999997209 -59.999999997209 -99.999999997209 -79.9999999948272 -80 -80 -49.9999999970214
-5000 -5000 -5000 -5000 -5000 -5000 -5000 -4990.00000000149 -5009.99999999872 -4990.00000000429 -5000 -5009.99999999874 -5019.99999999973 -5020.00000000278 -5029.99999999875 -5019.9999999997 -5040 -5009.99999999877 -5000 -5040 -5040 -5009.99999999842 -4989.99999999602 -5000 -5040 -5110.0000000016 -5060.00000000278 -5040 -5139.99999999677 -5139.99999998934 -5280 -5309.99999999885 -5109.99999999787 -5080.00000000227 -5079.99999999896 -5060.00000000225 -4999.99999999668 -5050.00000000111 -2880.00000000767 -1549.999999994 -3999.99999994412 -4659.99999999106 -4389.99999999891 -4310.00000000046 -4290.00000000044 -4600.00000002011 -4320.00000000213 -4099.99999999722 -4280.0000000021 -4360 -4319.9999999993 -4209.99999999825 -4149.99999999547 -4169.99999999415 -4320.00000000447 -4979.99999999798 -4980.00000000278 -4980.00000000278 -4900.00000000357 -4830.00000000655 -4890.00000000457 -4510.00000001488 -4369.99999999347 -4489.99999999988 -4400.00000000192 -4359.99999997897 -4089.99999999085 -3990.0000000064 -4200.00000001473 -4239.99999999909 -4219.99999999907 -4230.0000000102 -4049.99999999346 -4099.99999999166 -4120.00000000181 -4009.99999999632 -3910.00000000645 -3889.99999999911 -3819.9999999962 -3689.9999999981 -3609.99999999809 -3519.9999999979 -3300 -3439.99999999615 -4180.00000000048 -4180.00000000885 -4230.00000000472 -4340 -4380.00000000895 -4430.00000000017 -4249.99999999803 -4389.99999999525 -4239.99999999765 -4309.99999999445 -4249.99999999681 -4510.00000001917 -4640.00000000522 -4640.00000000433 -4580 -4630.00000000076 -4670.00000000202 -4690.00000000481 -4610.00000000074 -4499.99999999462 -4299.99999999869 -4409.99999991493 -4779.999999993 -4739.99999999857 -4820.00000000408 -4890.00000000622 -4920.00000000002 -4800.00000000139 -4720 -4470.00000000068 -4179.99999999857 -3699.99999999856 -3479.99999999988 -3690.00000003647 -3899.99999999869 -4370.00000002067 -4389.99999999936 -4239.99999999849 -4020.00000001289 -2929.99999999507 -3060.00000000556 -2619.99999995365 -2590.00000002336 -4180.00000000667 -4600.00000000476 -4629.99999999344 -4870.00000000702 -5050.0000000022 -5229.99999999991 -5409.99999999665 -5480 -5379.99999999833 -5520 -5520 -5530.00000000224 -5510.00000000053 -5400.00000000106 -5469.99999999774 -5519.99999999548 -5550.00000000227 -5549.99999999671 -5530.00000000228 -5470.00000000327 -5349.9999999941 -5409.9999999977 -5539.99999999722 -5529.99999999953 -5579.99999999815 -5520 -5520 -5189.99999997599 -5490.00000001334 -5240.00000000731 -3980.00000000642 -5049.99999999872 -4860.00000000278 -4830.00000000958 -4509.99999999795 -3579.99999995006 -1979.99999999483 -1679.99999990408 479.999999993207 350.000000002666 29.9999999743011 229.99999999963 459.999999997948 850.000000007265 1200.0000000007 1130.00000000174 1060.00000000278 1069.99999999756 1010.00000000523 759.999999995089 659.99999999722 560.000000002154 410.000000000307 280 300.000000002188 370.00000000249 400.00000000278 330.000000003058 169.999999998039 150.000000004758 50.0000000002615 9.99999999747615 0 -20 -40 -49.9999999997669 -129.999999996993 -279.999999991661 -559.999999988881 -709.99999999381 -669.999999986716 -529.999999986301 -399.999999986488 -199.999999992036 -129.999999997038
-5000 -5000 -5000 -5000 -4960 -4989.99999999871 -5029.99999999872 -5040 -5030.00000000127 -5030.00000000127 -5029.99999999874 -5040 -5040 -5040 -5040 -5040 -5049.99999999846 -5040 -5040 -5010.00000000156 -5020 -4980 -4990.00000000434 -4990.00000000158 -5000 -5209.99999999453 -5220.00000000234 -5160.00000000277 -5190.00000000438 -5180.00000000046 -5289.99999999885 -5270.00000000391 -5110.00000000114 -5030.00000000062 -5009.99999999836 -4960.00000000224 -4869.99999999888 -5010.00000000388 -4389.99999996122 -1839.99999998052 -4340.00000001139 -4739.9999999899 -4640.00000000432 -4519.99999999661 -4380.00000000063 -4540.00000001172 -4179.99999999819 -4249.99999999009 -4290.00000000037 -4319.99999999654 -4350.00000000937 -3999.99999999517 -3939.99999999795 -4190.00000001576 -4139.99999999851 -4489.99999999824 -4479.9999999957 -4519.99999999801 -4499.99999999723 -4429.99999999902 -4480.00000000081 -4330.00000000044 -4270.00000000097 -4339.99999999277 -4309.99999999733 -4349.99999999177 -4300.00000000088 -4250.00000000085 -4279.99999999079 -4339.99999999904 -4359.99999999077 -4259.99999999723 -4239.99999999723 -4220.00000000096 -4179.99999999626 -4020.00000000098 -4030.00000000288 -3839.99999999748 -3940 -3779.99999999897 -3670.0000000019 -3589.99999999914 -3440 -3579.99999999938 -4080.00000000326 -4120.00000001771 -4180.00000000111 -4289.9999999997 -4360.00000000164 -4490.00000000424 -4349.99999999804 -4219.9999999984 -4300 -4230.00000000593 -4350.00000000318 -4330.00000000078 -4460.00000000122 -4599.99999999846 -4649.99999999924 -4650.00000000201 -4689.99999999925 -4689.99999999926 -4660.00000000019 -4519.9999999974 -4389.99999999796 -4809.99999999507 -4929.99999999241 -4749.99999999517 -4830.00000000076 -4889.99999999793 -4840.00000000968 -4819.99999999861 -4679.99999999723 -4479.99999999575 -4029.99999999077 -3889.99999999646 -3519.99999998867 -3880.00000002422 -4179.99999998521 -4370.0000000045 -4350.0000000049 -3859.99999999699 -3499.99999999089 -3089.99999998066 -3329.99999998954 -3629.99999999574 -3739.99999999326 -2820.00000001509 -3890.00000000812 -4160.0000000016 -4830.00000000656 -4920.00000000621 -5229.99999999666 -5340.00000000164 -5440.00000000554 -5409.99999999335 -5490.00000000055 -5520.00000000338 -5500.0000000017 -5460 -5429.99999999671 -5510.00000000052 -5499.99999999825 -5509.99999999949 -5509.9999999995 -5510.00000000227 -5450.00000000049 -5439.99999999723 -5390.00000000783 -5540 -5590.00000000047 -5380.0000000083 -5309.99999999583 -5100.00000001654 -5279.99999999446 -5180.00000000641 -4540.00000002474 -4119.99999995891 -4719.99999999169 -4840.00000000277 -4699.99999999723 -4840 -4760 -2749.99999994498 -2200.00000000554 510.000000016229 320.000000001268 349.999999988745 -80.0000000027682 239.999999997948 490.000000008606 1130.00000000726 1170.00000000034 1050.00000000034 1150.00000000666 1089.99999999479 959.999999995737 749.999999993258 589.999999999079 410.000000000301 409.999999989814 320 339.999999997232 279.999999997789 290.000000003041 169.999999999733 159.999999997755 130.000000007537 -20.000000002268 -59.9999999972317 -60.0000000022908 -140.000000002302 -250.000000002541 -469.99999999701 -729.999999999352 -1089.99999999937 -1289.99999999703 -1209.99999999426 -1159.99999999408 -909.999999997419 -839.999999976177 -789.999999986335
-4980.00000000013 -5000 -4979.99999999724 -5030.0000000013 -5000 -5050.00000000128 -5040 -5080.00000000551 -5070.00000000149 -5049.99999999874 -5050.0000000015 -5040 -5009.99999999849 -5040 -5040 -5030.00000000123 -5029.99999999846 -5020 -5040.00000000242 -5040 -5040 -5050.00000000119 -5069.99999999254 -4969.99999999803 -4969.99999999882 -5149.99999999924 -5200.00000000043 -5120 -5159.99999999724 -5260.00000000138 -5279.99999999724 -5240.000000006 -5139.9999999995 -5010.00000000613 -4820.00000000775 -4879.99999999724 -4790.00000000722 -4820.00000000055 -4680.0000000198 -2359.99999996876 -3529.9999999935 -4870.00000000168 -4790.00000000107 -4540.00000000338 -4430.00000000996 -4609.99999999747 -4890.00000000787 -4279.9999999999 -4360.00000000135 -4449.99999999552 -4359.99999999654 -4299.99999999378 -4229.99999999623 -4409.99999999623 -4399.99999999926 -4349.99999999624 -4379.99999999494 -4339.99999999802 -4339.99999999803 -4309.99999999707 -4399.99999999367 -4390.00000000097 -4419.99999999641 -4500.00000000085 -4459.99999999087 -4550.00000000196 -4610.00000000634 -4430.00000000361 -4450.00000000002 -4439.99999999999 -4279.9999999899 -4349.99999999721 -4190.0000000009 -4439.99999999987 -4299.99999999173 -4129.9999999871 -4130.00000000088 -4009.99999999812 -3940.00000000174 -3779.99999999897 -3610.00000001776 -3669.99999999704 -3540 -3550.00000000299 -3840.00000001261 -4159.99999999505 -4219.99999999724 -4279.99999999612 -4270.00000000859 -4360.00000000276 -4339.99999998942 -4400.00000000594 -4470.00000000079 -4289.99999999841 -4300.0000000012 -4360.00000000121 -4370.00000000782 -4540.00000000123 -4520.00000000525 -4640 -4619.99999999851 -4670.00000000074 -4630.00000000349 -4349.99999999406 -4089.9999999981 -4399.99999999581 -4759.99999999349 -4899.99999999455 -4920.00000000136 -4890.00000000068 -4770.00000000207 -4739.99999999997 -4530.00000000068 -4309.99999999367 -3910.00000000209 -3690.00000000653 -3780.00000000435 -4340.00000000259 -4469.99999999936 -4360.00000001167 -4180.00000001056 -3190.00000000287 -2940.00000001502 -2549.99999998345 -2879.99999999878 -3040.00000000758 -3359.99999999955 -3159.99999998543 -3480.00000002413 -4050.00000000769 -3870.00000000563 -4660.00000003226 -4900.00000001767 -4730.00000000771 -5329.99999999779 -5440.00000000442 -5429.99999999886 -5540.00000000444 -5490.00000000223 -5440 -5470.00000000224 -5470.00000000051 -5480.0000000045 -5530.00000000126 -5520 -5520 -5459.99999999821 -5410.00000000875 -5350.00000000323 -5229.99999999953 -5280.00000000276 -5199.9999999954 -5110.00000000782 -5020.00000000463 -5020.00000000276 -4939.99999999724 -4129.9999999676 -4520.00000000874 -4880.00000000551 -4720.00000002042 -4790.00000000235 -4759.9999999886 -4760.00000000197 -4600 -2090.00000002062 -2119.99999999574 390.000000007901 249.999999992093 169.999999992804 70.0000000120224 450.000000001023 850.000000011397 1269.99999999966 1230.00000000033 1200.00000000827 1179.99999999724 1149.99999999329 949.99999999755 789.999999987722 549.999999994782 399.99999999942 340.000000000568 269.999999999721 400.000000004968 419.999999989507 439.999999998954 339.999999989484 -30.0000000002501 -70.0000000025125 -50.0000000002387 -80.0000000045816 -139.999999997698 -309.999999999335 -700.00000000465 -1040.00000000234 -1380.0000000047 -1569.99999999704 -1539.9999999866 -1379.99999998897 -1339.99999999964 -1299.99999999449 -1340.00000000276
-5000 -4990.0000000013 -5000 -5020.00000000016 -5019.99999999725 -5040 -5029.99999999853 -5070.00000000422 -5069.99999999852 -5040 -5050.0000000015 -5040 -5030.00000000124 -5020.00000000028 -5020.00000000274 -5039.99999999695 -5020.00000000274 -5029.99999999846 -4990.00000000154 -5049.9999999988 -5109.99999999845 -5039.99999999762 -5040 -5029.99999999333 -5059.99999999725 -5120.00000000591 -5180.00000000738 -5180.00000000736 -5309.99999999611 -5289.9999999984 -5200.00000000227 -5049.99999999742 -5070.00000000162 -4729.99999999837 -4650.00000000557 -4640.00000000655 -4780 -4680.0000000033 -4530.00000000602 -2009.99999994011 -3160.00000003777 -4620.00000002352 -4679.99999999665 -4260.00000000151 -4110.00000000636 -4580 -4879.99999999725 -4709.99999998939 -4509.99999999554 -4630.00000000103 -4519.99999999655 -4489.99999999827 -4489.99999999552 -4539.99999999725 -4500.00000000274 -4489.99999999001 -4459.99999999649 -4389.99999999824 -4439.99999999567 -4389.99999999548 -4539.99999999919 -4499.99999999643 -4599.99999999749 -4529.99999999651 -4609.99999998996 -4719.9999999935 -4610.00000000632 -4610.00000000827 -4249.99999999546 -4510.00000000915 -4549.99999999727 -4419.99999999993 -4440.00000000454 -4289.99999999911 -4279.99999999903 -4320.00000000274 -4270.00000000163 -4139.99999999725 -3990.00000000086 -3889.99999999537 -3809.99999999811 -3729.9999999981 -3609.99999999641 -3540.00000000275 -3649.99999999917 -4180.0000000011 -4240.00000000549 -4109.99999999583 -4179.99999999499 -4200.00000001419 -4199.99999999176 -4399.99999999842 -4360 -4249.99999999254 -4300.0000000012 -4410.00000000472 -4279.99999998932 -4460.00000000123 -4550.00000000599 -4550.00000000074 -4640.00000000127 -4649.99999999927 -4659.99999999871 -4479.99999999465 -4349.99999999916 -4250.00000002949 -4520.00000000542 -4840.00000000549 -4820.00000000274 -4829.99999999932 -4729.99999999794 -4500.0000000152 -4479.99999999719 -4260.00000000125 -3640.00000000406 -3530.00000002824 -3379.99999999725 -3730.00000001893 -3840.00000001687 -3580.0000000184 -3279.99999995433 -3279.99999998025 -2559.99999997752 -3050.00000000398 -3420.00000000496 -3349.99999999523 -2759.99999996908 -3559.99999999883 -3579.99999998743 -4100.00000000594 -4310.00000000057 -4409.99999999944 -4610.00000000107 -4720 -5190.00000001871 -5340.00000000274 -5509.99999999672 -5509.99999999947 -5430.00000001046 -5240.00000002196 -5080.0000000175 -5139.99999999827 -5340.00000000174 -5370.00000000225 -5360.00000000451 -5299.99999999822 -5300.00000000274 -5240.00000000549 -5099.99999999544 -5140 -5099.99999999725 -5109.99999999586 -5070.00000000044 -5020 -4959.99999999451 -4889.99999999768 -4420.00000001227 -3870.00000002774 -4800.00000000193 -4849.9999999996 -4879.99999999061 -4830.00000000039 -4760.00000000472 -4739.99999999725 -4429.99999996968 -2029.99999999287 -1789.99999992689 479.999999988421 200 -19.999999997948 210.000000006531 610.000000008635 1270.0000000011 1319.9999999979 1220.00000000633 1359.99999999239 1259.99999999512 1049.99999999756 949.999999996368 699.999999990177 509.999999999716 350.000000002467 400.0000000044 440.000000004422 390.000000002484 399.999999995532 429.999999992514 9.99999999749889 -80 -70.0000000025125 -79.9999999977092 -160.000000002302 -330.000000002097 -760.00000000465 -1070.00000000447 -1639.99999999686 -2329.99999998805 -2469.99999999357 -2209.99999996594 -1829.99999998096 -1649.99999999468 -1810.000000005
-5000 -4990.00000000144 -5019.99999999727 -5040 -5040 -5059.99999999727 -5089.99999999853 -5070.000000004 -5040 -5029.99999999852 -5030.00000000149 -5029.9999999985 -5030.00000000123 -5019.99999999727 -5040 -5010.00000000091 -4980.00000000031 -5050.00000000153 -5009.99999999607 -5079.99999999761 -5099.99999999964 -5049.99999999956 -5149.99999999609 -5080.00000000273 -5060.00000000547 -5139.99999999453 -5110.00000000201 -5020.00000000361 -4980.00000002595 -5150.00000000114 -5110.00000000113 -4930.00000000289 -4450.00000000013 -4399.99999999676 -4510.00000000776 -4470.00000000163 -4469.99999999671 -4380 -4439.99999999727 -2900.0000000193 -3609.99999998955 -4860.0000000006 -4389.9999999965 -4230.00000000255 -4070.0000000021 -4380.00000000064 -4810.00000000235 -4969.99999999896 -4749.99999999283 -4620.00000000411 -4629.99999999555 -4650.00000000172 -4649.99999999755 -4590.000000005 -4580.00000000273 -4629.99999999825 -4649.99999999355 -4590.00000000527 -4539.99999999727 -4629.99999999356 -4539.99999998744 -4609.99999999714 -4690.00000000178 -4780.00000001367 -4710.00000000367 -4889.99999999372 -4859.99999999013 -4559.99999999275 -4659.9999999927 -4570.00000000729 -4550.00000000637 -4420.00000001547 -4500.00000000642 -4439.99999999727 -4379.99999999532 -4149.99999999836 -4379.99999999727 -4129.99999999914 -4029.99999999641 -3899.99999999624 -3890.00000000085 -3819.99999999832 -3689.99999999704 -3649.9999999981 -3650.00000000625 -3890.00000000904 -4300.00000000111 -4280 -4330.0000000008 -4270.0000000008 -4270.00000000036 -4200 -4260.00000000273 -4249.99999999923 -4320 -4409.99999999803 -4380.00000000273 -4400.00000000247 -4430.00000000199 -4560.00000000399 -4590.000000002 -4650.00000000073 -4660.00000000273 -4500.00000000273 -4399.99999999737 -4160.00000000786 -4380.00000004222 -4350.00000001979 -4219.99999999181 -4249.99999999658 -4360.00000001094 -4199.99999999856 -3879.99999999852 -3660.00000000405 -3529.99999999637 -3489.99999999504 -3290.00000000595 -3300.00000000401 -3540.00000005363 -3960.00000000672 -3520.00000000671 -3000.00000000848 -2890.00000000577 -3099.99999999638 -3769.99999999632 -3629.99999998929 -3770.00000000371 -3909.99999999163 -4120.00000000864 -4340.00000000866 -4360.00000000048 -4470.00000000329 -4480.00000000163 -4630.00000000219 -4760.00000001158 -5030.00000001908 -4790.00000000221 -4840.0000000082 -4890.00000000665 -4940.00000000718 -5000.00000000172 -5079.99999999727 -5209.9999999995 -5260.00000000176 -5229.99999999775 -5220.00000000178 -5180.00000000547 -5179.9999999982 -5099.99999999364 -5100.00000000182 -5080 -5070.00000000318 -5000 -4980.00000000086 -4960.00000001196 -4899.99999999811 -3590.00000001208 -4770.00000000314 -4899.9999999926 -4829.9999999996 -4970.00000000976 -4849.99999999765 -4709.99999999765 -4750.00000000037 -4799.99999999727 -4469.9999999659 -2200.00000001081 -379.999999911608 99.9999999993463 -40.0000000047862 80.0000000047976 410.000000001086 1200.0000000172 1360.00000000064 1260.00000000273 1470.00000001275 1500 1259.99999999084 1169.99999999267 889.999999995384 479.999999995646 479.999999995623 339.9999999978 400 429.999999999744 300.000000002234 390.00000000249 79.9999999904958 -19.9999999954639 -50.000000005241 -99.9999999995566 -239.999999999568 -509.999999999369 -950.000000004445 -1469.9999999904 -2429.99999999318 -2919.99999999962 -3049.99999999435 -3089.99999999947 -3009.99999999163 -2769.99999997961 -2159.99999997152
-5009.9999999987 -5040 -5029.99999999872 -5040 -5069.99999999873 -5110.00000000127 -5099.9999999998 -5060.00000000021 -5080.00000000272 -5080 -5099.99999999728 -4810.00000003391 -4930.00000000422 -4970.0000000015 -4949.99999999849 -5019.9999999997 -5080.00000000303 -5069.9999999988 -5099.99999999795 -5100.00000000238 -5050.00000000118 -5040 -5109.99999999883 -5190.0000000031 -5240.00000000272 -5119.99999999852 -5120.00000000774 -5050.00000000158 -4930.0000000093 -4820.00000000545 -4700.00000000225 -4500.00000000176 -4430.00000000334 -4480.00000000101 -4290.00000000331 -4169.99999999565 -4280.00000000925 -4390.00000000109 -4449.99999999723 -1850.00000003634 -3070.00000001433 -4829.99999999774 -4389.99999999773 -4079.99999999084 -4120.00000000209 -4459.99999999728 -4680.00000000261 -4940.00000000405 -4899.99999998913 -4449.99999999898 -4699.99999999176 -4750.00000000172 -4759.99999999928 -4789.99999999827 -4820.00000000742 -4819.99999999183 -4749.99999999009 -4810.0000000037 -4650.00000000641 -4489.99999998783 -4879.99999999618 -4869.9999999955 -5069.99999999612 -4760.00000003624 -4839.9999999884 -4650.00000002717 -4839.99999999632 -4490.00000000448 -4520.00000000546 -4600.00000000725 -4460 -4660.00000000094 -4589.99999999816 -4469.99999999912 -4519.99999999903 -4390.00000000359 -4360.00000000272 -4249.99999999914 -4210.00000000187 -4100.00000000103 -3839.9999999843 -3849.99999999978 -3809.99999999645 -3619.9999999995 -3560.00000000272 -3699.9999999989 -4070.00000000464 -4149.99999999487 -4220.00000000159 -4399.99999999728 -4369.99999999963 -4339.99999999883 -4280.0000000039 -4320 -4320.0000000012 -4340 -4360 -4349.99999999951 -4430.00000000198 -4450.00000000346 -4480.00000000399 -4520.000000004 -4399.99999999871 -4339.99999999728 -4489.99999999122 -4200.00000001582 -4199.99999998916 -4449.9999999898 -4480.00000001089 -4400.00000000135 -4319.99999999728 -4070.00000000199 -3869.99999998547 -3860 -3640.00000000545 -3539.99999999584 -3239.99999999565 -3220.00000000146 -3380.00000000125 -3059.99999998935 -3269.99999999015 -2709.99999999244 -3009.99999999489 -3220.00000000526 -3830.00000000095 -4010.00000000135 -3960.00000000469 -3800.00000000472 -4140.00000000045 -4159.99999999728 -3950.00000001739 -3870.00000001637 -4090.00000000435 -4150.00000001091 -4079.99999999893 -4820.00000000333 -4830.00000000388 -4950.00000000493 -4930.00000000221 -4939.99999999385 -4959.99999999455 -5110.00000000223 -5160 -5190.00000000224 -5179.99999999905 -5190.00000000225 -5120.00000000451 -5120 -5060 -5100.0000000009 -5019.99999999816 -5000 -4960 -4960.00000000459 -4989.9999999977 -4689.99999999829 -4099.99999993769 -4650.00000000131 -4980.0000000008 -4880.00000000545 -4740.00000000195 -4790.00000000234 -4859.99999999728 -4819.99999999802 -4919.99999999455 -4900 -4089.99999994144 -3049.99999991823 200.000000020418 140.000000002052 -230.000000003712 210.000000014717 560.000000008981 1140.00000001236 1230.00000000303 1329.99999999637 1550.00000000669 1579.99999999884 1330.00000000301 1069.99999999322 559.999999993469 440.000000000534 420.0000000022 469.999999999744 360 300.000000002723 330.000000002484 109.999999992997 -80 -89.9999999943327 -180.00000000415 -470.000000001671 -939.999999993326 -1619.99999999994 -2380.00000000079 -2969.99999999474 -3259.99999999964 -3369.99999999438 -3420 -3320 -3229.99999999712 -3069.99999999471
-5090.000000004 -5040 -5080.00000000542 -5069.99999999585 -5040.00000000271 -5099.99999999729 -5119.99999999729 -5089.99999999833 -5080 -5070.00000000395 -4999.99999999704 -5040.00000000246 -4869.99999998606 -4910.00000000281 -5060 -5120 -5099.99999999426 -5109.99999999881 -5119.99999999966 -5070.00000000424 -5049.99999999647 -5119.99999999803 -5239.9999999942 -5210.00000000155 -5200.00000000583 -5089.99999999802 -4839.99999999458 -5040.00000000227 -4749.99999999707 -4619.99999999775 -4470.00000000112 -4430.00000000431 -4719.99999999877 -4759.99999999458 -4509.99999999787 -4460.00000000377 -4530.00000000163 -4409.99999999295 -4589.99999999565 -2119.99999996896 -3610.00000000501 -4729.99999999835 -4669.99999999441 -3730.00000000771 -3900.00000000189 -4450.00000000774 -4360.00000000767 -4850.00000000573 -5070.00000000169 -4699.99999997758 -4709.99999998535 -4889.999999999 -4880.00000000199 -4929.99999999483 -4939.99999998495 -4849.99999999902 -4879.99999998568 -4810.0000000033 -4850.00000000944 -4629.99999998006 -4919.99999999566 -5119.99999999918 -5220.00000001439 -4949.99999999093 -4730.00000000377 -4859.99999999621 -4690.00000000186 -4430.00000001086 -4409.99999999638 -4530.00000000181 -4430.00000000268 -4599.99999999823 -4500.00000000813 -4440 -4320.00000000174 -4259.99999998817 -4430.00000000086 -4259.99999999799 -4189.99999999271 -4039.99999999523 -3979.99999999458 -3830.00000000039 -3870.00000000189 -3749.99999999918 -3659.99999999403 -3560.00000000433 -3859.9999999995 -4120 -4130.0000000035 -4189.99999999922 -4239.99999999573 -4300.00000000233 -4290.00000000194 -4330.00000000433 -4249.99999999804 -4260.00000000271 -4250.0000000059 -4290.00000000074 -4340.00000000022 -4359.99999999749 -4350.00000000199 -4410.00000000215 -4539.99999999884 -4100.00000001735 -3960.00000000534 -3949.99999999659 -4290.00000000882 -4410.00000000744 -4280.00000001084 -4059.99999999312 -4150.00000001156 -4230.00000000058 -3830.00000000888 -3470.00000001845 -3580.000000004 -3379.99999999856 -3230.00000001021 -2970.00000000084 -3190.00000001023 -3070.00000000604 -2469.99999998799 -3329.99999998554 -3700.00000000401 -3849.99999999127 -4299.99999999575 -3940.00000001238 -3630.00000002112 -3809.99999999742 -3630.00000000215 -3679.99999998852 -3879.99999999017 -4179.99999999024 -4110.00000000056 -4400.00000000435 -4370.00000000489 -4819.99999999791 -4920.00000000103 -4849.9999999978 -4849.99999999848 -4959.99999999558 -5020.00000000172 -5040.00000000444 -5039.99999999922 -5130.00000000319 -5090.00000000943 -5059.99999999822 -5070.00000000225 -5049.99999999774 -5070.00000000226 -5010.00000000315 -5000 -5010.00000000314 -4970.00000000043 -4940 -4960.00000000083 -4989.99999999499 -4090.00000002584 -5030.00000000311 -4750.00000002979 -4779.99999999729 -4760.00000000542 -4820 -4870.00000000431 -4890.00000000235 -4969.99999999765 -4749.99999999151 -4819.99999999729 -3809.99999997393 -3189.99999994057 289.999999994907 -139.999999995344 -260.000000009572 130.000000007822 710.000000018929 1270.00000000452 1370.0000000003 1590.000000003 1690.00000000243 1459.99999999729 1109.99999999756 719.999999993469 489.99999999755 469.999999999744 450.000000002461 399.999999997777 289.999999999761 320 209.999999997971 -129.999999999335 -190.000000002063 -549.999999998528 -930.000000001279 -1650.00000000403 -2290.00000000872 -2900.00000000467 -3299.99999999927 -3449.99999999711 -3489.99999999983 -3529.99999999778 -3479.99999999458 -3429.99999999744 -3349.99999999985
-5070.00000000128 -5119.99999999744 -5099.99999999745 -5100.0000000027 -5060.0000000027 -4929.99999998104 -5000.0000000002 -5049.99999999833 -4980.00000000248 -5049.99999999607 -5040 -5060.0000000027 -5199.99999999757 -5179.9999999973 -5139.9999999973 -5169.9999999988 -5169.99999999849 -5169.99999999579 -5149.99999999882 -5170.00000000083 -5160 -5150.00000000116 -5240.00000000038 -5169.99999999845 -5180 -5149.99999999761 -5020.00000000043 -4959.99999999599 -4710.00000000068 -4640.0000000027 -4449.99999998903 -4709.99999999349 -4929.9999999984 -4869.9999999962 -4749.99999999672 -4759.99999999836 -4780 -4669.99999999623 -4390.00000000748 -1400.00000001006 -2730.00000000454 -4720.00000000659 -4630.00000000253 -4409.99999999586 -3970.00000003614 -4220.00000001106 -4680.00000000679 -4789.99999999358 -4890.00000000506 -5060.0000000027 -5049.9999999922 -4699.99999999872 -4900.00000000684 -5019.99999999533 -4770.00000000908 -4799.99999998769 -5030.00000000097 -5009.99999999442 -4950.0000000084 -5099.9999999973 -5089.99999999743 -5049.99999999741 -5149.99999999823 -5080 -4879.99999999301 -4950.00000000178 -4729.99999999292 -4529.9999999955 -4609.9999999955 -4559.99999999455 -4669.99999999819 -4390.00000000688 -4379.99999999745 -4420 -4389.99999999644 -4429.99999999644 -4300.0000000044 -4249.99999999645 -4240.00000000372 -4129.99999999505 -3849.99999999917 -3769.99999999378 -3769.99999999378 -3639.9999999984 -3689.99999999811 -3540.0000000016 -3620.00000000983 -3930.00000000955 -4160 -4240.00000000114 -4260.0000000054 -4249.99999999807 -4200 -4250.00000000464 -4150.00000000465 -4120.00000001024 -3870.00000000023 -4240.0000000027 -4230.00000000176 -4380 -4260.0000000054 -4370.00000000341 -4160.00000000693 -4260.0000000014 -4120.00000001474 -4159.99999998523 -4560.00000000276 -4350.00000000472 -4090.00000000337 -3950.0000000061 -3860.00000000408 -3880.0000000054 -3609.99999999514 -3500.0000000054 -3069.99999999936 -2850.00000000712 -2640.00000000415 -2840.00000000146 -2950.00000002319 -3019.9999999892 -3599.99999994122 -4400.00000000452 -4369.99999998236 -3730.00000003767 -3459.99999999266 -3719.9999999896 -3899.99999998337 -4099.9999999901 -4099.9999999973 -4299.9999999995 -4370.00000000106 -4350.0000000027 -4470.00000000217 -4480 -4389.99999999678 -4800.00000000167 -4850.00000000489 -4790.00000000219 -4939.9999999983 -4970.0000000022 -5000.00000000172 -4919.9999999975 -4850.00000000048 -4750.00000002018 -5089.99999999963 -4969.99999999868 -5050.00000000045 -5120 -5080 -5030.00000000044 -5069.99999999957 -5029.99999999858 -4979.99999999814 -4969.99999999688 -4970.00000000417 -4970.0000000004 -4799.99999998809 -4730.00000001729 -4669.99999998187 -4859.9999999973 -4839.99999999535 -4840 -4880 -4960.0000000027 -4899.999999998 -4799.9999999973 -4749.99999999966 -4990.00000000372 -3609.99999999606 -1539.99999981586 -20.0000000109537 -300.000000018275 -79.9999999952138 430.000000016189 950.000000005104 1230.00000000935 1410.00000001094 1650.00000001369 1500.00000000215 1220.0000000027 969.999999997038 579.9999999973 549.99999999215 389.999999997544 330.000000005161 219.999999997766 180.0000000027 200.000000004957 -219.999999995032 -310.000000012028 -970.000000006258 -1339.9999999915 -1990.00000000675 -2579.99999999962 -3029.99999999982 -3350.00000000217 -3540.00000000034 -3500.0000000027 -3549.99999999746 -3529.99999999985 -3520 -3509.99999999986
-5120 -5079.99999999731 -5089.99999999858 -5060 -5069.99999999588 -5049.99999999875 -5020 -5059.9999999971 -5099.99999999731 -5080.00000000047 -5149.99999999878 -5139.99999999757 -5169.99999999932 -5179.99999999731 -5180.00000000029 -5209.9999999985 -5190.0000000015 -5170.00000000118 -5160 -5149.99999999848 -5240 -5209.99999999921 -5260.00000000269 -5190.00000000115 -5180.00000000269 -5110.00000000424 -4979.99999999462 -4900.00000000494 -4499.99999997042 -4579.99999999646 -4529.99999999889 -4990.00000000379 -5030.00000000209 -4989.99999999454 -4999.99999999948 -4889.9999999957 -4900.00000000269 -4760 -4159.99999999662 -1529.99999998785 -2750.00000000014 -4719.99999998596 -4410.00000001032 -3889.99999999752 -4140.00000000521 -4560.00000000473 -4609.99999999157 -4919.99999999529 -4880.00000000068 -4900.00000000069 -5049.9999999997 -5139.99999999731 -4769.99999999757 -4820.00000000269 -4619.99999999148 -5029.9999999929 -5150.00000000096 -5179.99999999844 -5150.00000000095 -5120.00000000458 -5149.99999999825 -5039.99999999814 -5100 -5060.000000001 -4969.99999999908 -4999.99999999462 -4840 -4749.99999999641 -4740.0000000009 -4600.00000000183 -4610.00000000357 -4689.99999999819 -4579.9999999981 -4460.00000000096 -4419.99999999903 -4429.99999999547 -4269.99999999915 -4140.00000000337 -4039.99999999629 -4099.99999999462 -3929.99999999068 -3870.00000000245 -3799.99999999731 -3659.99999999462 -3670.00000000189 -3650.00000000617 -3620.0000000049 -3860 -3920.00000001033 -4169.99999999654 -4230.00000000308 -4119.99999999883 -4169.99999999807 -4300.00000000388 -4269.99999999297 -4089.99999999953 -4120.00000000538 -4169.99999999557 -4010.00000001043 -3980.00000000932 -4219.99999999873 -4260.00000000397 -4410.0000000036 -4140.00000002004 -4259.99999998531 -4310.00000000738 -4100.00000000269 -3970.00000000471 -3719.99999999861 -3620.00000001349 -3700.00000000261 -3530.00000000473 -3330.00000000473 -3040.00000000651 -3079.99999997547 -2430.0000000015 -2329.99999999814 -2659.99999998825 -3390.00000001309 -4310.00000000329 -4190.00000001493 -4000.00000001495 -3809.99999998597 -3940.00000000996 -4050.00000000251 -4050.00000000367 -4169.99999999944 -4290.00000000056 -4200.0000000011 -4260.00000000319 -4330.00000000376 -4370.00000000215 -4460.00000000269 -4450.0000000059 -4350.00000000217 -4870.00000000154 -4850.00000000319 -4890.00000000219 -4810.00000000757 -4930.00000000318 -4920.00000000172 -4870.00000000317 -4499.9999999808 -4970.00000000211 -4999.99999999639 -4990.00000000492 -5060.00000000179 -5120 -5109.99999999775 -5089.99999999774 -5090.00000000043 -5030.00000000042 -4979.99999999814 -5030.00000000228 -4939.99999999812 -4839.99999999731 -4330.00000002436 -4699.99999999156 -4560.00000002922 -4839.99999999925 -4789.99999999842 -4810.00000000232 -4849.99999999498 -4880.0000000007 -4770.00000000035 -4730.00000000303 -4820.00000000941 -5000.00000000203 -5059.99999999796 -3849.99999997329 1420.00000007685 99.9999999836348 -309.999999974619 280.000000002097 610.000000008725 1330.00000000452 1580.00000001066 1539.99999999088 1539.99999999838 1310.00000000459 1059.99999999565 799.999999992434 599.999999990712 459.999999993366 249.999999999767 140.000000002234 200 -159.999999997311 -369.999999997101 -740.000000006838 -1260.00000000458 -1819.99999999424 -2160.00000000194 -2560.00000000465 -3040.00000000467 -3380.00000000235 -3520 -3519.99999999731 -3520 -3529.99999999746 -3609.99999999745 -3699.99999999731
-5159.99999999745 -5040.00000000521 -5039.99999999717 -5100.00000000268 -5100 -5149.99999999857 -5089.99999999816 -5149.99999999834 -5110.00000000368 -5129.9999999961 -5159.99999999732 -5239.99999999974 -5249.99999999585 -5260.00000000028 -5250.00000000119 -5180 -5140.00000000031 -5180.00000000235 -5229.99999999816 -5170.00000000151 -5210.0000000008 -5189.99999999617 -5190.00000000153 -5110.00000000153 -5069.99999999538 -4920.00000000803 -4810.00000000338 -4769.99999998953 -4739.99999999509 -4829.99999999575 -4880.00000000724 -5039.99999999148 -5179.9999999995 -5209.99999999841 -5099.99999999732 -5090.00000000002 -4989.99999999839 -4889.99999999405 -3919.9999999955 -1050.00000000468 -2799.99999998151 -4760.00000000506 -4269.99999999982 -4080.00000000268 -4009.99999999835 -4300.00000000664 -4760.00000000333 -5019.99999999732 -4870.00000000771 -4960.00000000933 -5059.99999999732 -4719.99999999197 -4959.99999998959 -4720.00000001144 -5119.99999999539 -5040.00000000535 -5020.00000000382 -5070.00000000173 -5199.99999999464 -5099.99999999652 -5110.00000000093 -5139.99999999918 -5140 -5029.99999999739 -5110.00000000091 -5089.99999999823 -4950.0000000009 -4850.00000000089 -4809.99999999821 -4609.99999999905 -4639.99999999907 -4530.00000000542 -4510.00000000104 -4509.99999999475 -4390.00000000621 -4369.99999999888 -4140.00000000168 -4070.0000000015 -4160.00000000166 -3989.99999999444 -4040.00000001071 -3839.99999999359 -3819.99999999413 -3749.99999999545 -3709.99999999703 -3789.99999999276 -3929.99999999321 -3809.99999999922 -4110.00000000232 -4239.99999999732 -4260 -4300.00000000151 -4120.00000000385 -3939.99999999434 -4159.99999999345 -4060.00000000829 -3960.0000000039 -4149.99999999392 -4229.99999999287 -4089.99999999929 -4089.99999997943 -4269.99999999407 -4300.0000000001 -4159.99999998676 -3960.00000000263 -3939.999999992 -3720.00000001339 -3500.00000000264 -3150.00000001405 -3239.99999999987 -3320.00000000535 -3260.00000000139 -3479.99999999873 -4089.99999999386 -3559.99999998358 -3409.99999998292 -2789.99999997819 -3869.99999997846 -4439.99999999317 -3880.00000000506 -3850.00000001579 -3999.99999999883 -4029.99999999942 -3979.99999999464 -4109.9999999914 -4269.99999999944 -4200.00000000111 -4209.9999999952 -4160 -4229.99999999946 -4380.00000000429 -4339.99999999838 -4340.00000000326 -4370.00000000751 -4290.00000000484 -4720.00000003207 -4799.999999998 -4899.99999999325 -4849.99999999781 -4839.99999999561 -4899.99999999292 -4869.99999998897 -4739.99999999802 -5079.99999999289 -5069.99999999955 -5139.99999999732 -5080.00000000179 -5150.00000000224 -5130.00000000043 -5149.99999999775 -5129.99999999507 -5060 -5029.99999999691 -5019.99999999813 -4900.00000000188 -4549.99999999674 -4760.00000001488 -4879.99999999541 -4509.99999996364 -4760.00000000415 -4830.00000000426 -4779.99999999804 -4789.99999999768 -4830.00000000233 -4659.99999998934 -4550.00000001237 -4770.00000000235 -4930.0000000017 -5199.99999999732 -5069.9999999929 -2759.99999988494 909.999999947426 -40.000000008032 170.000000025324 860.000000006327 1270.00000001356 1449.99999999011 1600 1539.99999999843 1360.00000000051 1179.99999999782 930.000000002433 709.999999995839 459.999999997789 419.999999997323 250.000000002456 -30.0000000042746 -250.000000002046 -519.999999994236 -979.999999999204 -1480.00000000687 -2139.99999999695 -2319.99999999964 -2700.00000000662 -3110.00000000684 -3470.00000000218 -3530.00000000252 -3549.99999999717 -3540 -3649.99999999986 -3720.00000000268 -3749.99999999987
-5139.99999999454 -5119.99999999986 -5060 -5030.00000000142 -5169.99999999875 -5269.99999999609 -5100.00000000493 -5169.9999999914 -5149.99999999611 -5120 -5129.99999999612 -5240 -5290.00000000147 -5250.00000000147 -5160 -5190.00000000148 -5180.00000000031 -5170.00000000117 -5209.99999999883 -5150.00000000116 -5080.00000000533 -5090.00000000115 -5089.9999999981 -4979.99999999961 -4920 -4920.00000000267 -4850.00000000112 -4799.99999999777 -4869.99999999578 -4700.00000000046 -5029.99999999671 -5099.99999999952 -5129.99999999891 -5299.99999999784 -5210.00000000056 -5000.00000001119 -5090.00000000373 -4960.00000000211 -3020.0000000154 -1549.99999998509 -3929.99999998648 -5109.9999999951 -4529.99999999411 -4000 -3770.00000000383 -3990.00000000634 -4410.00000000759 -4910.000000005 -4949.99999999833 -5000.00000000198 -5100.00000000267 -5080.00000000124 -5049.99999999903 -5140.00000000193 -4839.99999998859 -4770.00000000473 -4989.99999999869 -5030.00000000172 -5090.00000000627 -5039.9999999984 -5110.00000000174 -5069.99999999825 -5129.99999999825 -5139.99999999818 -5120.00000000352 -5050.0000000009 -4930.00000000001 -4840.00000000267 -4700.00000000352 -4669.99999999912 -4559.99999999733 -4470.00000000007 -4490.00000000086 -4399.99999999541 -4399.99999999733 -4369.99999999453 -4220.00000000167 -4110.00000000148 -4010.00000000223 -3870.00000000718 -3799.99999999038 -3909.99999999337 -3609.99999999707 -3589.99999999546 -3489.99999999704 -3549.99999999765 -3729.99999999655 -3890.00000000413 -4059.99999999846 -4150.00000000343 -4339.99999999698 -4269.99999999959 -4359.99999999349 -4299.9999999991 -3990.00000000367 -3870.0000000029 -4059.99999999011 -4059.99999997887 -3950.00000000089 -4060.00000000659 -3940.000000008 -4289.99999999931 -4020.00000002124 -4279.99999999864 -4189.99999999268 -3969.99999998868 -3339.999999996 -2620.00000000396 -2579.99999998788 -2700.00000000267 -2839.99999999338 -3129.99999998361 -3720.00000002877 -4169.9999999898 -3850.0000000248 -3759.99999999733 -3630.00000000542 -3740.00000002133 -3579.99999999347 -3880.00000000118 -3790.00000000592 -3969.99999999791 -4090.00000000324 -4170.0000000021 -4060 -4109.99999999789 -4110.00000000055 -4160 -4230.0000000032 -4329.9999999904 -4320 -4330.00000000319 -4290.00000000052 -4369.99999999949 -4339.99999999733 -4870.00000000916 -4920 -4890.00000000484 -4869.99999999685 -5009.99999999419 -4950.00000000486 -4610.00000002753 -5040.00000000267 -5080.00000000169 -5099.9999999982 -5109.99999999956 -5119.99999999733 -5070.00000000043 -5099.99999999819 -5089.99999999775 -5109.99999999775 -5040.00000000533 -5009.99999999588 -4950.00000000414 -4929.99999999773 -4860.00000000688 -4839.9999999981 -4629.99999999579 -4719.99999999081 -3999.9999999903 -4860.00000000267 -4819.99999999804 -4819.99999999733 -4840.00000000267 -4700.00000000334 -4680.00000000266 -4760 -4910.00000000438 -5120.00000000471 -5169.99999999764 -4999.99999999733 -409.999999781909 259.999999981918 800.000000013722 1219.99999999467 1240.00000000424 1360.0000000016 1529.9999999976 1579.99999999467 1519.99999999733 1109.9999999954 930.000000000716 679.999999990734 519.999999999545 429.999999995777 189.999999993082 119.999999991019 -370.000000004718 -720.00000000947 -1140.00000000151 -1660.00000001183 -2230.00000000248 -2470.00000000249 -2760.00000000465 -3140.00000000734 -3430.00000000485 -3499.99999999764 -3480 -3630.00000000757 -3700.00000000239 -3739.9999999976 -3720.00000000267
-5169.99999999874 -5160 -5169.99999999844 -5140.00000000249 -5209.99999999858 -5319.99999999716 -5389.99999999818 -5150.00000000101 -5200.00000000288 -5159.99999999977 -5170.0000000012 -5229.99999999829 -5279.99999999735 -5180.00000000028 -5140.00000000265 -5010.00000000118 -4890.00000000211 -4970.00000000414 -5010.00000000647 -5060.00000000496 -4970.0000000038 -5010.00000000114 -4960.00000000189 -4859.99999999961 -4770.00000000378 -4740.00000000489 -4699.99999999649 -4729.99999999845 -4510.00000001658 -4839.99999999607 -4929.99999999767 -4790.0000000076 -4950.00000000571 -4390.00000000348 -5110.00000000372 -5040.00000000106 -5000.00000000054 -4909.99999999464 -3330.00000000757 -3539.99999996743 -5139.99999999528 -5060.00000000206 -4679.99999999347 -4290.00000000429 -3899.99999999811 -3819.99999999799 -3960.00000000927 -4590.00000000431 -4820.00000000401 -5029.99999999833 -5020.00000000196 -5000.00000000123 -5079.99999999783 -4949.999999993 -4940.00000000116 -4629.99999998843 -4879.99999999469 -4820.00000001749 -4909.99999998952 -4780.00000000426 -5000 -5110.00000000174 -5150.00000000174 -5129.99999999825 -5089.99999999739 -5030.00000000089 -4939.99999999912 -4779.99999999911 -4790.00000000003 -4630.00000000352 -4570.00000000617 -4440.00000000265 -4459.99999999545 -4309.99999999384 -4319.99999999903 -4329.99999999916 -4299.99999999469 -4189.99999998087 -4099.99999999204 -4010.0000000098 -3789.99999999284 -3659.99999999364 -3680.00000000159 -3630.00000000186 -3579.99999999735 -3710.00000000453 -3610.00000000057 -3799.99999999735 -3980.00000000265 -4170.00000000607 -4349.99999999925 -4340.00000000382 -4269.99999999896 -4419.99999999057 -4429.99999999011 -4349.99999998987 -4429.99999999928 -4480.00000000265 -4529.9999999968 -4459.99999999874 -4470.00000000311 -4579.99999999872 -4550.00000000068 -4549.99999999136 -4729.99999998871 -4699.99999999071 -4610.00000000333 -4259.99999997995 -3709.99999997256 -2990.00000000056 -3940.00000000552 -3730.00000002074 -3620 -3590.00000000876 -3719.99999999735 -3609.99999999651 -3640.00000000531 -3589.99999999675 -3819.99999998673 -4119.99999999321 -4080 -4099.99999999469 -4090.00000000057 -4119.99999999887 -3960.00000001481 -4079.99999999469 -4119.99999999469 -4170.00000000004 -4250.00000000371 -4259.9999999984 -4349.99999999521 -4349.99999999624 -4329.99999999949 -4479.99999999899 -4360.00000000696 -4419.99999999901 -4939.99999999832 -4900 -4940.00000000361 -4719.99999998442 -4680.0000000231 -4640.00000000163 -4829.99999998369 -4909.99999999682 -5100 -5120 -5149.99999999778 -5130.00000000223 -5059.99999999819 -5049.99999999959 -5020 -5020.00000000265 -4909.99999999854 -4850.00000000039 -4790.00000000304 -4740.00000000455 -4700.00000000381 -4709.99999999963 -4029.9999999596 -4779.99999999735 -4839.99999999805 -4780 -4789.99999999769 -4760.00000000198 -4740 -4620.00000000401 -4790.00000000234 -4870.00000000437 -5010.000000005 -5199.99999999734 -5120 -4979.9999999932 460.000000033754 450.000000024465 1220.00000000422 1270.00000000027 1520.00000000105 1600.00000000429 1550.0000000024 1499.99999999469 1309.99999999806 879.999999997812 650.000000000227 500.000000003098 400.000000002223 279.999999992457 9.99999999795932 -350.000000002058 -670.000000003956 -1160.00000000721 -1640.00000000156 -2180.00000000921 -2490.00000001011 -2730.00000000714 -3060.00000000202 -3370.00000000485 -3430.0000000028 -3460.00000001033 -3420.00000000714 -3460.00000001301 -3340.00000000746 -2220.00000003209
-5170.00000000139 -5150.00000000139 -5289.99999999301 -5259.99999999719 -5390.00000000106 -5319.99999999754 -5329.99999999878 -5209.99999999878 -5249.99999999372 -5309.99999999856 -5189.99999999616 -5280 -5240 -5259.99999999972 -5099.99999999942 -4929.99999999853 -4850.00000000085 -4900.00000000032 -5000 -5049.99999999655 -4970.00000000078 -4920.00000000529 -4890.00000000075 -4730.00000000112 -4530.0000000121 -4509.99999999235 -4340.00000001449 -4529.99999999933 -4690.0000000011 -4869.9999999958 -4640.00000000651 -4850.00000001262 -4509.99999996044 -5180.00000000793 -5130.00000000738 -4969.99999999048 -4999.99999999892 -5040.0000000043 -4139.99999998414 -5179.99999999943 -5180.00000000058 -5139.99999999736 -4950.0000000057 -4699.99999999285 -4309.99999999308 -4069.99999999314 -3890.00000000494 -4230.00000000298 -4630.00000000498 -4920.00000000264 -4890.00000000292 -4979.99999999807 -4969.99999999567 -4980.00000000073 -4930.0000000021 -4739.99999999584 -4650.00000001654 -4929.99999998677 -4729.99999999458 -4860.00000000264 -4940.0000000124 -5050.00000001495 -5109.99999999993 -5120 -5070.00000000089 -4959.99999999913 -4839.99999999824 -4749.99999999998 -4689.99999999823 -4640.00000000173 -4520 -4309.99999999991 -4419.99999999641 -4350.00000000084 -4260.00000000167 -4370.00000000015 -4320.00000000165 -4349.99999999918 -4239.99999999796 -4089.99999999552 -3920 -3789.9999999971 -3600.00000000583 -3509.99999999814 -3590.00000000078 -3590.00000000032 -3719.99999999932 -3610.00000000188 -4130.00000000453 -4079.99999999736 -4120.00000000033 -4339.99999999059 -4570.00000000309 -4620 -4659.99999999736 -4669.99999999807 -4539.99999999756 -4470.00000000335 -4439.99999999875 -4459.99999999207 -4559.99999999862 -4629.99999999395 -4500.00000002373 -4530.00000000067 -4659.99999999867 -4720.00000000265 -4540.00000001185 -4250.00000000049 -3630.00000005743 -3359.99999998532 -3539.99999999748 -3649.99999999923 -3669.99999999922 -3669.99999999939 -3720 -3730.0000000006 -3730.00000000205 -3799.99999999736 -3930.00000000206 -3999.9999999962 -4050.00000000172 -4070.00000000057 -4090.0000000032 -4050.00000000056 -4069.99999999306 -4130.00000000164 -4149.9999999979 -4269.99999999103 -4409.99999999101 -4449.99999999948 -4439.99999999736 -4469.99999999949 -4399.99999999674 -4420.00000000429 -4410.00000000215 -4360.00000000597 -4830.0000000048 -4899.99999999494 -4850.00000000481 -4460.00000001228 -4639.99999999724 -4620.00000001305 -4889.99999998025 -4960.00000000085 -5129.99999999779 -5109.99999999957 -5100.00000000085 -5030.00000000042 -5030.00000000223 -5000 -4969.99999999776 -4919.99999999736 -4880 -4869.99999999774 -4750.00000000114 -4679.99999999736 -4680 -4689.99999999891 -4650.00000000228 -4769.99999999965 -4860.00000000264 -4789.99999999838 -4799.99999999538 -4669.99999999769 -4740.000000002 -4719.99999999535 -4800.00000000529 -4790.00000000172 -4850.00000000438 -5160.00000000264 -5219.99999999794 -4949.99999996254 -1560.00000001307 240.000000016865 1020.00000000844 1520.00000000845 1410.00000000605 1429.99999999811 1630.00000000671 1699.99999999688 1519.99999998989 1169.9999999954 729.999999995379 539.999999992502 469.99999999979 319.999999997766 199.999999997755 -250.000000009606 -680.000000009823 -990.000000004741 -1500.00000000687 -2020.0000000023 -2339.99999999504 -2690.00000000481 -3020.00000000234 -3210.00000000514 -3150.00000001307 -3160.00000000766 -3200.0000000029 -1709.99999995969 -820.000000005525 -620.000000018957
-5289.99999999625 -5309.99999999612 -5439.99999999752 -5440 -5469.99999999877 -5449.99999999596 -5489.99999999615 -5399.99999999758 -5439.99999999759 -5359.9999999945 -5319.99999999737 -5279.99999999711 -5249.99999999882 -5249.99999999619 -5209.99999999854 -4899.9999999997 -4749.99999999821 -4780.00000000032 -4920.0000000033 -5020.00000000263 -5079.99999999773 -4969.99999999813 -4909.99999999849 -4700.00000000039 -4369.99999999585 -4380 -4240.00000000917 -4289.99999999671 -4520.00000000084 -4399.99999999428 -4939.99999998515 -4790.00000001112 -5010.0000000185 -5089.99999999894 -4979.99999999051 -4680.0000000016 -4780.00000000526 -4889.99999999786 -5049.9999999984 -5200 -3110.00000000949 -5040.00000000382 -5139.99999999939 -4890.00000000039 -4769.99999999711 -4589.99999999246 -4410.00000000034 -4109.99999999832 -4370.00000000429 -4690.00000000498 -4830.00000000167 -4790.0000000043 -4880 -4900.00000000263 -4959.99999999662 -4809.99999999755 -4780.00000000077 -4560 -4949.99999999039 -4440.00000000629 -4680.00000000851 -4830.00000000173 -5070.00000000616 -5100.00000000348 -5090.00000000003 -4940.00000000089 -4770.00000000263 -4669.99999999913 -4569.99999999823 -4500.00000000172 -4170.00000002995 -4059.99999999906 -4349.999999986 -4140.00000000071 -4209.99999999654 -4230.00000001135 -4310.00000000117 -4469.99999999919 -4329.99999999877 -4120.00000000423 -3930.00000000184 -3770.00000000342 -3649.99999999972 -3410.00000000078 -3350.00000000077 -3400.00000000153 -3670.00000000409 -3850.00000000075 -3920.00000000226 -4169.99999999662 -4229.99999999284 -4340.00000000496 -4440.00000000644 -4470.00000000454 -4470.00000000981 -4490.00000000192 -4659.99999999351 -4710.00000000456 -4549.99999999792 -4379.99999998935 -4469.99999998489 -4599.99999999075 -4650.00000000325 -3940.00000001992 -3490.00000000462 -3429.99999998751 -3699.9999999921 -3720.00000000006 -3630.00000000463 -3619.99999999737 -3670.00000000062 -3709.99999999799 -3670.00000000447 -3669.99999999939 -3540.00000000263 -3600.00000000288 -3780.00000000145 -3889.99999999941 -3989.99999999532 -3989.99999999794 -3990.00000000093 -4050.00000000094 -4209.99999999681 -4190.00000000318 -4269.99999999682 -4309.99999999946 -4359.99999999893 -4420 -4430.00000000369 -4430.00000000052 -4470.00000000212 -4460 -4430.00000000213 -4409.9999999995 -4399.99999999835 -4299.99999999903 -4950.00000000048 -4739.99999999474 -4660.00000001223 -4170.00000003165 -4129.99999999418 -4860.00000000873 -4959.99999998161 -5090.00000000658 -5060.0000000044 -4950.00000000221 -5069.99999999863 -4939.99999999723 -4969.99999999959 -4970.0000000004 -4969.9999999996 -4960 -4859.99999999551 -4859.99999999813 -4849.99999999586 -4570.00000000762 -4730.00000000036 -4509.99999999844 -4640 -4769.99999999702 -4770.00000000424 -4739.99999999737 -4750.00000000033 -4820 -4790.00000000231 -4679.99999999335 -4789.99999999768 -4840 -4779.99999999592 -5040.00000000879 -5169.99999999972 -5160 -3379.99999994438 -589.999999973988 370.000000035016 670.000000017656 1309.99999999762 1090.00000001096 1770.00000000646 1750.00000000673 1760 1499.99999999474 1049.99999999055 709.999999994947 569.999999992718 429.999999999801 230.000000000193 -30.0000000069576 -580.0000000098 -880.000000002279 -1280.00000000687 -1920.00000000164 -2380.00000000231 -2680.00000000961 -2940.0000000003 -2839.9999999953 -2670.00000000068 -2530.0000000075 -2860.0000000005 -1289.99999998911 -579.999999988205 -60.000000000216
