NCOLS 213
NROWS 31
XLLCORNER -60
YLLCORNER 50
CELLSIZE 1 
NODATA_value -9999 
-2639.99999999178 -2560.00000001715 -2599.99999999334 -2600.00000000107 -2520.00000000671 -2560.00000000285 -2560 -2560 -2599.99999999416 -2559.99999999612 -2559.99999999612 -2479.99999999911 -2440.00000000689 -2559.99999998921 -2519.99999998307 -2440.00000000308 -2440.00000001396 -2440.00000001088 -2519.99999999612 -2520.0000000007 -2520 -2520.00000000322 -2599.99999998964 -2560.00000000714 -2599.99999999343 -2520.00000000719 -2559.99999999612 -2560.00000000388 -2559.9999999995 -2599.9999999966 -2560.00000001117 -2560.00000000388 -2599.99999999306 -2600 -2599.99999999649 -2560.00000001095 -2560.00000000356 -2600 -2599.99999999612 -2640 -2640 -2639.99999999633 -3000.00000004228 -4560.0000000462 -5040 -5040 -5040 -5000.00000000381 -5039.99999999612 -5000.00000000388 -5040 -5039.9999999961 -5040 -5039.99999999612 -5040 -5040 -4960.00000001578 -5039.99999999209 -5040 -5000.00000000796 -5040 -5039.99999999612 -5040 -5000.00000000388 -5040 -5039.99999998803 -5039.99999999612 -5040 -5079.99999998755 -5039.99999999569 -5040 -5040 -5040 -3760.00000010646 -2560.0000002409 -3160.00000006704 -3640.00000000657 -3520.00000001224 -3359.99999999161 -3240.00000000388 -3199.99999999156 -3279.99999998766 -3319.99999999612 -3400.00000000388 -3399.99999999923 -5039.99999995966 -5039.99999999612 -5039.99999999612 -5039.99999999527 -5040 -5039.99999998747 -5040 -5039.99999999518 -5039.99999999516 -5039.99999999225 -4679.99999989684 -4199.99999998346 -4280.00000003454 -5040 -4960.00000001771 -5039.99999997286 -5039.99999988757 -3679.9999999872 -3600.00000001402 -3679.99999999225 -3799.99999999612 -5039.99999998711 -5039.99999999096 -5040.00000000518 -5040 -5000.00000000911 -5040.00000000138 -5040 -5039.9999999947 -5039.99999999612 -5000.00000000388 -5040 -5039.99999999461 -5000.00000000541 -5000.00000000931 -5039.99999999454 -5039.99999998516 -5000.00000000938 -5040 -5000.00000000942 -5079.99999998667 -4960.00000001894 -5040 -5040 -5039.99999999612 -5040 -5039.99999999429 -5000.00000000961 -5000.00000000963 -5000.00000000965 -4960.00000001935 -4439.99999994567 -2879.99999999225 -2800.00000001561 -2880 -2840.00000000979 -2880 -2880 -2839.99999999014 -2840.00000000388 -2880.00000000603 -2799.99999999008 -2799.99999999612 -2760.00000000388 -2760.00000000612 -2760 -2719.99999999384 -2640.00000002012 -2680 -2680.00000000388 -2679.99999998987 -2679.99999999372 -2640.00000001017 -2639.99999999612 -2600.00000000388 -2600 -2560.00000000639 -2600 -2599.99999999357 -2560.00000001033 -2520.00000000388 -2479.99999999737 -1840.00000004264 -1680.00000004919 -1720.00000002057 -1840.00000003489 -1960.00000003763 -1960.00000004264 -1760.00000004652 -1600.0000000504 -1720.00000003981 -2000.00000004937 -2400.00000001838 -2559.99999999322 -2520.00000000775 -2599.99999999612 -2560.00000001072 -2600 -2600 -2560 -2599.99999998613 -2520.00000002554 -2560.00000001086 -2600 -2599.99999999297 -2600 -2600 -2560.00000001097 -2599.99999998577 -2480.00000002203 -2480.00000001104 -2320.00000000445 -1880.00000004264 -1480.0000000548 -960.000000064028 -760.000000040677 -520.000000062028 -480.000000046521 -400.000000038767 -400.000000046521 -440.000000038767 -360.000000046521 -240.000000031332 -120.000000038767 -40.0000000193836 79.9999999656097 119.99999998472 200.000000003672
-2559.99999999726 -2519.99999999338 -2480 -2520.00000000385 -2479.99999999615 -2439.99999999615 -1560.00000001639 -2200.00000002026 -2440 -2400.0000000068 -2080.00000002786 -1480.00000006937 -1360.00000002733 -1440.0000000647 -2120.00000002312 -2360.00000000848 -2080.00000003469 -1680.00000005396 -1679.99999999864 -1640.00000003469 -1600.0000000533 -1600.00000004303 -1560.00000005396 -2040.00000003083 -2480.00000001099 -2520.00000001432 -2559.99999999281 -2560 -2599.99999998892 -2520.00000000771 -2599.99999999701 -2520.00000001115 -2599.99999999306 -2560 -2519.99999999966 -2520.00000000739 -2599.99999999259 -2560.00000000358 -2599.99999999615 -2599.99999999252 -2600 -2599.99999999615 -2599.99999999261 -2600.00000000771 -2560.00000000759 -2639.99999999624 -2639.99999999615 -2680.00000004239 -4080.00000011929 -5040 -5000.00000000002 -5000.00000000385 -5040 -5039.99999999615 -5039.99999999615 -5039.99999999615 -5040 -5040 -5000.00000000385 -5040 -5000.00000000796 -4960.00000001596 -5039.99999999615 -5000.00000000803 -5040.00000000385 -5039.99999999615 -5040 -5040 -4799.99999997641 -3920.00000007753 -2560.00000013103 -2560.00000000821 -2600 -3400 -3360.00000000442 -3240.00000000326 -2959.99999999229 -2920.00000002567 -3160.00000001156 -3200.00000000839 -3119.99999999159 -3040.00000000916 -4439.99999988128 -5039.99999999152 -5039.99999999535 -5040 -4960.00000001708 -5000.00000000856 -5000.00000000385 -5039.99999999229 -5040 -5039.9999999952 -4960.00000001735 -5039.99999998646 -5000.00000000385 -5039.99999999615 -5040 -5040 -5039.99999999614 -5079.99999998731 -5000.00000000886 -5040 -4960.00000002285 -5040 -5000.00000000385 -5000.00000000897 -5039.99999999486 -5040 -5039.99999999614 -5000.00000000385 -5040 -4960.00000000911 -4560.00000004239 -4439.99999999085 -4440 -5039.99999998695 -5040 -5000.00000000924 -5039.99999998918 -5040 -5000.00000000931 -5040.00000000548 -5000.00000000936 -5000.0000000149 -5040 -5039.99999999443 -5040 -5000.00000000947 -5039.99999999229 -5039.99999999434 -5000.00000000568 -5000.00000000956 -5040 -5000.00000000961 -5039.99999999422 -4639.99999999795 -2760 -2800 -2880.00000000201 -2879.99999999411 -2880 -2800 -2800.00000000596 -2840 -2800 -2760 -2720.0000000099 -2759.99999999615 -2759.99999999005 -2719.99999999388 -2720 -2719.99999998382 -2640.00000001389 -2680 -2640.00000001008 -2639.99999999615 -2639.99999999372 -2639.99999998985 -2599.99999999368 -2560.00000000771 -2599.99999997956 -2520.00000000771 -2200.00000000389 -1320.0000000501 -600.000000012813 -240.00000001927 -159.999999997351 -80 -80.000000003854 -80 -80.000000003854 -80 -80 -80 -80 -80 -80 -80 -80.0000000144837 -400.000000031957 -2360.00000002432 -2559.99999999701 -2519.99999999313 -2040.00000003994 -2039.999999977 -1880.00000002312 -2080.00000003704 -2280.00000001927 -2280.00000001542 -1960.0000000161 -1440.00000003083 -920.000000017326 -560.000000015416 -360.000000005036 -120.00000001927 -79.9999999966917 -40.000000011039 -40.000000003854 40 -40.0000000111072 -80 -159.999999992701 -80.0000000073214 -3.853983798763e-09 40.0000000112209 119.999999996146 159.999999989029 120.000000015416 120.000000026228 40.0000000301497 1.52112988878739e-08 40.0000000227601 240.000000003854
-2479.99999999343 -2400.00000000276 -2440.00000000278 -2439.99999999617 -1160.0000000563 -600.000000002854 -440.000000007662 -119.999999986539 -120.000000010584 -280.000000003831 -239.999999997033 -160.000000003831 -120.000000000819 -79.9999999969645 -40.0000000137788 -120.000000010743 -200.000000000728 -160.000000010789 -160.000000003831 -120.000000007662 -200.000000000637 -200.000000007049 -239.99999999676 -200 -240 -319.99999999286 -280.000000003331 -320.000000006707 -239.999999996169 -80.0000000033992 -120.000000022578 -400.00000001188 -520.000000034117 -1520.00000006266 -2320.00000002267 -2519.99999998143 -2440.00000001095 -2520.00000000383 -2480.00000000766 -2559.99999998892 -2559.99999999234 -2560.00000000383 -2560 -2560.00000000383 -2560 -2599.99999998864 -2600 -2559.99999999998 -2599.99999999617 -2599.99999999615 -2600 -2520.00000001546 -2600.00000007681 -3840.00000002716 -5000.0000000078 -5040 -4960.00000001167 -5000.00000000383 -5040 -5040 -5039.9999999959 -5040 -5040.00000000383 -5039.99999999234 -5040 -5040 -5039.99999999193 -2600.00000000383 -2600 -2560.00000000814 -2600 -2600 -3439.99999999288 -3480.00000000383 -3360.00000002034 -3399.99999999295 -3040.00000000447 -3240.00000001532 -3079.99999999549 -5039.99999994636 -5040 -5000.00000000458 -5040 -5040 -5039.99999999617 -5000.00000000849 -5040 -5000 -5039.99999999527 -5040 -5000.00000000861 -5000.00000000863 -5039.99999999617 -5039.99999999414 -5039.99999999617 -5000.00000000872 -5040.00000000108 -5039.99999999507 -5000.00000000496 -5000.00000000383 -5000.00000000883 -5039.99999999114 -4960.00000001776 -5039.99999999234 -5040 -5039.99999999617 -5039.99999999103 -5039.99999999101 -5040 -4920.00000001149 -4400.0000000498 -4000.0000000532 -3000.00000008812 -2880.00000003155 -2760.00000004363 -2800.00000000998 -2920.00000010727 -3040.00000008812 -3440.00000003448 -3360.00000003065 -3920.00000005584 -5000.00000000931 -5040 -5040 -5039.99999999617 -5000.00000000383 -4879.99999994107 -4879.99999994841 -4439.99999999617 -4479.99999999617 -4480 -4960.00000000383 -4000.00000003451 -3360.00000001723 -2800.00000000383 -2720.00000001926 -2800 -2800.00000000967 -2880 -2880 -2879.99999998818 -2879.99999998813 -2840.00000000383 -2760.00000000981 -2680.000000006 -2759.99999999014 -2719.99999999395 -2680.00000000383 -2680 -2679.99999998622 -2520.00000002146 -2480.0000000015 -2240.00000001828 -1960.00000003356 -1280.00000003495 -640.000000034481 -520.000000005218 -280.000000019156 -280.000000005173 -160.0000000255 -200.00000001786 -160.000000014052 -119.999999997419 -80 -79.9999999897113 -79.9999999935199 -80 -40 -39.9999999972829 -7.66249286117858e-09 -2.08501660368862e-08 -3.83124643121868e-09 -40 -40 -79.9999999933152 -79.9999999961688 -80 -79.9999999961688 -79.9999999961688 -80 -120.000000003831 -160.000000022169 -160.000000003831 -80.0000000076625 -80 -80 -80 -40.000000017792 -80.0000000146656 -79.9999999929742 -40 -39.9999999890974 7.09405867314775e-09 39.999999989052 -6.83832797336886e-19 3.3310243452415e-09 -39.999999992815 39.999999977922 120.000000006798 79.9999999889155 -3.83124643052178e-09 7.29869498102701e-09 39.9999999923375 1.117541614733e-08 199.999999992633 80 160.000000011244 160.000000011266 119.999999988711 199.999999988688 359.999999977331 479.999999969896 280
-480.000000003808 -560.00000001038 -600.00000000864 -440.000000014234 -279.999999999125 -40.000000006662 -200.000000003809 -80.0000000038085 -40.0000000038085 -7.61701812706835e-09 -40 -2.84682608863253e-19 39.9999999961915 39.9999999969646 -3.80850906367435e-09 3.08091330225597e-09 40 40 -40.0000000101068 -80.0000000006366 -40.0000000031946 -80 -3.80850906367435e-09 -7.0713213056636e-09 -3.80850906367435e-09 -79.9999999966917 -40 -4.5474735088649e-10 119.999999992383 159.999999988984 79.999999996578 39.9999999851298 -40.0000000034674 -80.0000000038085 -80.0000000073214 -159.999999996191 -120.000000003558 -159.999999996191 -199.999999996396 -160 -200 -200.000000011426 -200.000000038085 -520.000000068553 -1480.00000010623 -2400.00000002276 -2560.00000000381 -2599.99999999619 -2559.99999999236 -2599.99999999615 -2560.00000000381 -2599.99999999619 -2600 -2560.00000000789 -2599.99999999603 -2560.0000000078 -2640.00000027593 -5040 -4960.00000001573 -5040 -5000 -5039.99999999619 -5039.99999999238 -5000.00000000798 -5039.99999986156 -2560.00000000803 -2599.99999999619 -2560.00000000807 -2600 -2600 -2639.99999998805 -2599.99999999565 -3160.00000000438 -3120.00000001642 -3239.99999998354 -2760.00000001143 -5039.99999998791 -5039.99999998721 -5039.99999999549 -5040 -5040 -5040 -5039.9999999954 -5000.00000000843 -5000.00000000465 -5000.00000000847 -5039.99999999912 -5040 -5000.00000000854 -4999.99999999906 -5000.00000000858 -5000 -5040 -4960.0000000173 -5079.9999999799 -4999.99999994179 -4999.99999994558 -4959.99999995923 -5000.00000000115 -5039.99999999502 -5000.00000000881 -5000.00000000381 -5039.99999999495 -4680.00000001526 -4999.9999999822 -5040 -3999.99999999734 -3240.00000000491 -2800.0000000128 -2800 -2799.99999999477 -2799.99999999619 -2760.00000000908 -2799.9999999947 -2800.00000000381 -2840 -2800.00000000917 -2879.99999998319 -2760.00000000922 -2840 -2840 -2720.00000001691 -2800 -2799.99999999447 -2760.00000000381 -2760 -2760 -2760.00000000942 -2760.00000001509 -2760.00000001328 -2840.00000000756 -2839.99999999619 -2760.00000000954 -2800.00000000956 -2760.00000001917 -2800.00000000961 -2800.00000000963 -2879.99999998831 -2879.99999999619 -2839.99999999411 -2800.00000000381 -2760.00000000213 -2800 -2799.99999999402 -2680 -2640 -2599.99999999395 -2439.99999998714 -1120.00000005713 -559.999999985459 -120.000000005286 -119.999999993838 -80.0000000038085 -80 -80 -79.9999999961915 -79.9999999961915 -79.9999999898932 40.000000006321 40.0000000063437 -39.9999999936335 -39.9999999936108 -1.02204467105652e-08 -3.80850906367435e-09 -39.9999999935426 -40 -80.0000000038085 -79.9999999961915 -40.0000000038085 -80 -80 -80 -80.0000000066393 -80 -80 -79.9999999961915 -40.0000000105388 -80 -80 -40.000000010607 -79.9999999931788 -80 -40.0000000106752 -80 -80 -40.0000000038085 -40.0000000038085 -40 -6.66785121900054e-19 79.9999999891656 120 200 240.000000003809 239.999999989075 239.999999989052 199.999999996646 120.000000003809 0 -1.48475010036881e-08 40.0000000034447 79.999999992383 279.999999977467 -79.9999999405418 -39.9999999885745 -39.9999999740908 80 200.000000003808 279.999999970078 240.000000022692 120.000000000136 599.999999984766 280.000000037721 440.00000004917
-480 -400.000000003786 -199.999999998215 -3.78577169586426e-09 40.0000000066166 159.999999986721 159.999999988643 199.999999992428 320 320 319.999999999181 359.999999999204 320.000000003786 279.999999996214 240.000000003786 240 239.999999996214 239.999999996874 160.000000007572 160.000000003172 120 159.99999998978 120 159.999999992951 120.000000007071 159.999999996692 160.000000003331 199.999999996214 160.000000010539 160 160.000000003422 120.00000000723 199.999999989279 199.999999989234 120.000000007026 120.000000007321 119.999999992656 119.999999992838 40.0000000037858 39.9999999924284 -1.50066625792542e-08 -120.000000003786 -160.000000003786 -200 -199.99999999626 -200 -199.999999996214 -199.999999992406 -200 -560.000000030286 -1400.00000006823 -2520.00000001147 -2559.99999999608 -2520.00000000773 -2599.99999999621 -2520.00000000778 -2520.00000001181 -2560.00000000379 -2599.99999999216 -2600.00000001514 -3800.00000004196 -4960.00000000791 -5039.99999999585 -5040 -2599.99999999161 -2599.99999999578 -2559.99999999954 -2599.99999999574 -2560.00000000379 -2599.99999999621 -2560.00000000812 -2639.99999998372 -2680.00000001254 -2999.99999999621 -2920.00000000821 -2639.99999999555 -5079.99999999175 -5000.00000000828 -5039.99999999621 -5039.99999999546 -5039.99999999621 -5040 -5000.00000000839 -5039.99999999537 -5039.9999999907 -5039.99999999534 -5000.00000000847 -3840.00000003704 -2679.99999999527 -2719.99999999525 -2679.99999999522 -2719.99999998763 -2720.00000000482 -2879.99999999243 -2880 -2879.99999999243 -2880.00000000379 -2880 -2919.99999999126 -2880 -2879.99999999121 -2840.0000000391 -3160.00000004795 -3280.00000002772 -2920.00000001893 -2680.00000003049 -2759.99999999108 -2680.00000000379 -2720 -2640.00000000379 -2680 -2760 -2680.00000000906 -2640 -1840.00000002875 -920.000000012028 -680.000000007572 -480.000000020532 -480.000000020554 -600.000000007572 -680.000000005457 -720.000000015143 -840.000000033719 -1240.0000000134 -2040.00000003407 -2560.00000002628 -2680.00000000757 -2680.0000000094 -2720.00000000379 -2760.00000000945 -2840.00000000379 -2840 -2840 -2839.99999999621 -2760.0000000249 -2800.00000000958 -2800 -2760.00000000379 -2720.00000000965 -2799.99999998654 -2759.9999999903 -2680.00000001187 -2759.99999998809 -2160.00000000198 -1200.00000000406 -599.999999993281 -239.999999997738 -200 -200 -200 -119.999999996214 -80 -80 -80 -80 -80 -80 -40 -80 -80 -79.9999999924285 0 -79.9999999924285 -79.9999999962142 -80 -1.67460711951721e-08 -80 -79.9999999934744 -79.9999999962142 -80 -80 -80 -80 -80 -80 -80 -80 -80 -80 -80 -80 -80 -80 -80 -80 -40.0000000069349 -39.9999999930424 119.999999981662 80.0000000140062 279.999999996214 319.999999978331 320.000000017928 280.00000002176 279.999999996214 240.000000014279 519.999999956208 40.0000000325258 80.0000000106297 199.99999999277 199.999999988961 120 120.000000003786 159.999999992679 120.000000003786 199.99999998148 160.000000014779 280.000000011198 319.999999992701 400.00000001113 560.000000022624 640.000000022578 919.999999969805 759.999999939541
-279.999999990757 -159.999999986949 80.0000000055706 239.999999996237 319.999999989643 199.99999998962 159.999999990484 120 199.999999999159 240.000000003763 320.000000000796 320.000000003763 240.00000000075 240.000000003763 200.000000003058 240 199.999999996237 200 160.000000003149 160.000000003172 160.000000003763 120.00000000698 199.999999989757 120.000000007026 159.999999992951 199.999999996692 160.000000007094 160 80.0000000033765 199.999999996601 240.000000007185 200 200 160 160.000000003763 160 119.999999996237 120 80.0000000001591 39.9999999963734 39.999999996237 1.11981535148889e-08 79.999999996237 80 80 79.9999999924739 79.9999999849024 -3.76303432822741e-09 -7.52606865717141e-09 -80.000000015234 -160.00000000764 -199.999999992338 -280.00000002666 -1040.00000007223 -2280.00000001861 -2520 -2599.99999999599 -2560.00000000376 -2560.00000000406 -2560.00000000376 -2639.99999999213 -2520.00000000753 -2600 -2560.00000000376 -2600 -2599.99999999156 -2599.99999999152 -2599.99999999574 -2639.99999999195 -2560.00000000376 -2599.99999999624 -2599.99999999624 -2599.99999999125 -2599.99999999624 -2559.99999999181 -2600 -2760.00000014816 -4960.00000000825 -4920.00000000677 -4960.00000000753 -5039.99999998712 -3600.00000005563 -2760.0000000046 -2759.99999999537 -3039.99999994022 -2760 -2720.00000000376 -2680.00000000847 -2680.00000000097 -2719.99999999525 -2760.00000000579 -2800.00000000376 -2799.99999999518 -2759.99999999516 -2720.00000000376 -2759.99999999247 -2720.00000000376 -2839.99999999624 -2840 -2839.99999999004 -2840 -2759.99999999874 -2720.00000000376 -2720 -2680.00000000886 -2879.99999999624 -2880 -2759.99999999484 -2760 -2800.00000000665 -2760 -1880.00000001435 -840.000000000739 -360.000000006685 -240.000000003763 -200 -40.0000000112891 79.9999999833221 -160.000000012938 -280.000000003763 -240.000000003763 -240.000000009243 -320 -360 -400 -320.000000003763 -320.000000007526 -720.000000014995 -1760.00000008275 -2840.00000002261 -2880.00000000753 -2920.00000002076 -3160 -2919.99999999048 -2760.00000000376 -2680.00000000753 -2600.00000002669 -2480.00000001297 -2080.00000002756 -1320.00000004303 -720.000000006992 -280.000000009118 -120.000000007526 -159.999999996237 -120 -679.999999878776 -160.000000009811 -200 -200 -160.000000015996 -200 -80 -80 -80 -80 -80 -79.999999996237 -80 -80 -80 -40 -40.000000003763 -79.9999999935881 -80 -80 -79.9999999935199 -80 -40.0000000102887 -40.0000000103114 -40.0000000065711 -80 -1.24491974658987e-18 0 -39.999999996237 -6.68478605740443e-09 -40.000000003763 0 -40 -39.999999996237 -39.9999999932015 -6.41711209582409e-19 -3.76303432794185e-09 -3.76303432793971e-09 -3.76303432793758e-09 -1.75873537942384e-08 39.999999996237 159.999999992474 240.000000021487 360.000000003763 359.99999997566 239.999999989188 199.999999996692 199.999999992906 199.999999996237 120.000000014666 200.000000007526 80 159.999999989029 119.99999999277 1.12891029871218e-08 80.0000000188152 159.999999988711 160 279.999999970441 240.00000003339 280.000000063017 559.999999999886 320.000000078296 719.999999985016 799.999999988756 720.000000015029 680.000000030104 799.999999992474
-80.0000000074806 120.000000011221 79.999999999045 79.9999999934516 120.000000002831 200 240 240 239.999999997078 200.000000007481 279.99999999626 240.00000000374 239.999999993247 200 200 200 200.00000000374 240 200.000000000591 200 120.000000006389 159.999999993042 199.999999992519 199.999999996737 199.99999999626 240 240 199.999999996646 199.999999996624 160.000000003399 199.999999989416 80.0000000074806 160.00000000374 159.99999999626 200.000000003513 239.99999999626 279.999999996442 240 200 239.999999985266 119.999999996351 120.00000000374 120.000000003695 80 200 120 80.0000000037858 160 159.999999992428 120 79.9999999962597 -40 -160.000000007662 -199.999999992315 -159.999999996032 -159.99999999601 -160.00000000374 -120.000000014961 -320.00000002276 -1480.0000000925 -2560.00000000374 -2559.99999998878 -2560.00000000415 -2599.99999999583 -2560.00000000419 -2600 -2600 -2560.000000008 -2560 -2599.99999999943 -2599.99999999567 -2600 -2520.00000001623 -2600 -2719.99999998367 -2600 -2600.00000000374 -2599.99999999177 -2640.00000000451 -2720 -2759.99999998796 -2799.99999999542 -2800 -2800.00000000748 -2839.99999999626 -2800 -2800 -2760 -2799.99999999054 -2759.99999999525 -2640.00000001703 -2720 -2759.99999999626 -2800 -2799.99999999887 -2760.00000000374 -2799.99999999509 -2840.00000001241 -2880.00000002487 -2880.00000001496 -2880.00000001748 -2919.99999999871 -2999.9999999899 -2960 -2919.99999998981 -2760.00000000374 -2719.99999999626 -2720 -2559.99999998819 -1280.00000002032 -600.000000005991 -360 -360 -280.000000009038 -280.000000009061 -240.000000007481 -199.999999994634 -160 -239.999999990848 -80 -39.999999994543 -120 79.9999999962597 -40.0000000222712 -119.999999986971 80.0000000018303 40.0000000018872 -119.99999999626 -279.99999999626 -240.000000013142 -520.000000020646 -640.000000013188 -640.000000014961 -600.000000013233 -600 -400.000000009163 -280.000000007481 -279.999999994156 -240 -239.999999990371 -159.999999994088 -119.999999990325 -80.0000000059572 -119.99999999028 -80 -80.0000000037403 -80.0000000112209 -119.999999990189 -80 -80 -80.0000000037403 -80 -80 -79.9999999937927 -40.0000000037403 -80 -80 -40.0000000100385 -40.0000000100613 -80 -79.9999999962597 -80 -80.0000000064119 -79.9999999962597 -79.9999999898023 -40.0000000102204 -119.999999989757 -80 -80 -40 79.9999999896659 -6.18698786447233e-19 -39.9999999896204 -3.74029696041843e-09 -39.9999999895749 -6.70752342495043e-09 -3.74029696104138e-09 -39.999999993247 0 6.35707687792861e-19 0 80.0000000105842 119.999999971919 120 120.000000006912 240 359.999999999477 280 320.000000004218 400.000000011221 319.999999989211 599.99999999585 320 439.999999992519 279.99999999626 279.99999999626 320.000000014074 159.99999999626 359.999999974318 239.999999992747 279.999999977967 319.999999988779 479.999999988938 560.000000007344 520.000000011107 640 600.000000003809 600.000000026 480 359.999999985039 519.999999988779 480.00000000374 599.999999992451
40.0000000009777 160.000000002763 319.999999984209 79.9999999971919 40.0000000093792 120.000000010289 199.999999993406 160 319.999999997078 240.000000006662 239.999999997033 239.99999999701 240 200 160.000000006776 160 120 80.0000000068439 79.9999999968509 80.0000000074351 120 159.999999989348 200 200.000000003718 199.999999996282 279.999999996282 280.000000003331 320 200.000000007094 280.000000003399 280.000000000296 200.000000000273 159.999999992815 80.0000000074351 159.999999996282 159.999999996282 200 319.999999992701 200 200 159.999999996351 160.000000000045 120.00000001113 160.000000003718 120.000000003718 40.0000000149157 40.0000000037176 -3.71755959349705e-09 -3.83124643086261e-09 159.999999981139 240.000000003877 359.999999996282 199.999999996282 279.999999996055 239.999999980912 -40.0000000002728 -80.0000000037175 -80.0000000077534 -1.1493739293656e-08 -3.71755959349706e-09 -40.0000000074351 -120.000000015279 -800.000000088096 -2399.99999999955 -2519.9999999958 -2640.00000000372 -2560.0000000122 -2600.00000000372 -2600.00000001229 -2560.00000000803 -2599.99999999567 -2599.99999999256 -2600 -2560.00000000812 -2599.99999999115 -2560.00000000816 -2520.0000000119 -2599.99999999628 -2639.99999999549 -2719.99999999175 -2720.00000000372 -2760 -2759.99999999628 -2760.00000000463 -2799.99999999628 -2760.00000000466 -2760 -2719.9999999943 -2719.99999999527 -2759.99999999153 -2719.99999998673 -2640.00000001703 -2720.00000000372 -2759.99999998772 -2719.99999999628 -2640.00000000489 -2600.00000001235 -2640 -2720 -2720 -2679.99999999871 -2840 -2880 -2800.00000001758 -2799.99999999862 -2280.00000002694 -1160.00000001432 -599.999999998556 -240.000000012619 -240 -200.000000003718 -200 -240.000000003718 -280.000000003718 -240.000000009038 -280.000000009061 -319.999999996282 -240 -239.999999994588 -200.000000003718 -200.000000009175 -200.000000003718 -200 -279.999999994475 -239.999999994452 -159.999999990712 -120.000000003718 -119.999999996282 79.9999999962824 80 39.9999999905981 119.999999996282 79.9999999962824 120.000000002035 120.000000002058 199.999999980969 39.9999999962824 39.9999999867214 -40.0000000015689 -40.0000000096065 -80 -80 -80 -80 -79.9999999939973 -80 -40.0000000097657 -80 -40.0000000060936 -80.0000000061164 -79.9999999938609 -40 -1.36196831584773e-08 -3.71755959349706e-09 -3.71755959291804e-09 -40 -3.71755959291382e-09 -40.0000000037176 -80 -80 -79.9999999962824 -80 -80 -80.0000000064347 -80.0000000037176 -40.0000000101977 -1.39380063028597e-08 -40 -39.9999999962824 -3.71755959349706e-09 -1.03113961807402e-08 0 40 39.9999999962824 1.04023456502878e-08 39.9999999895749 80 39.9999999962824 -6.29730015397456e-19 0 0 0 40.000000024886 120.000000025477 80.0000000143473 240.000000006935 360.000000028308 479.999999996282 440 480.000000014052 360.000000017815 560.000000021214 360.000000010812 400.000000007435 360.000000017997 560.00000002176 640.00000001437 439.999999989075 600.000000007026 319.999999992747 480.000000014552 280.000000018315 559.999999974432 599.999999981503 639.999999985198 320.000000022214 439.999999974045 400.000000007435 560.000000000023 360.000000007526 359.999999992497 360.000000003718 840.000000011153
39.9999999972601 40.0000000064574 240.00000000739 200.000000002808 120.00000001022 159.999999997146 160 120.000000010289 80.0000000036948 160.000000006639 40 159.99999999701 160.000000006025 159.999999996965 120 120.000000009857 199.999999993202 119.999999996874 80.0000000036948 80.0000000068667 80 120.000000003695 160 160.00000001022 240.000000003285 240.000000010698 320 240.000000003354 200 160.000000003695 200 160.000000003695 199.99999998937 159.99999999651 160.000000003513 120.000000003695 80.000000010948 160.000000000114 120.000000007299 80.0000000036266 160.000000007344 279.999999992633 160 120.000000007412 120.000000003695 79.9999999963734 119.999999996305 160.000000000114 119.999999996305 160 279.99999999261 240.000000015393 280.000000007617 320.000000003695 319.999999996032 319.99999999601 279.999999996305 279.999999988574 199.999999996305 80.0000000036948 80.0000000073896 200.000000007822 160.000000003695 120.000000012039 159.999999995805 -360.000000045907 -1800.00000008935 -2360.00000002274 -2520.00000001966 -2640 -2560.00000000739 -2600.00000000805 -2599.99999999125 -2600 -2600 -2599.99999999261 -2560.00000000447 -2600.00000000819 -2879.99999999712 -2879.999999979 -2879.99999999261 -2919.99999999719 -3159.99999997783 -2799.99999999168 -2799.99999998796 -2760.00000000739 -2079.99999998496 -480.000000010073 -920.000000033697 -2320.00000004487 -2679.99999999892 -2639.9999999952 -2600.00000000852 -2599.9999999977 -2640.00000000739 -2719.99999999261 -2639.99999999139 -2639.99999999261 -2559.99999999874 -2519.99999998763 -2440.00000001478 -1760.00000000473 -1000.00000001207 -800 -520.000000002296 -480 -439.999999996305 -399.999999994839 -279.999999996305 -279.999999996305 -240 -200.000000003695 -200 -160.00000000739 -239.999999996305 -200 -200.000000009061 -240.000000003695 -200.000000009106 -200.000000005434 -200 -200 -80.0000000036948 -80 -120 -80 -40.000000012983 -40.0000000036948 -79.9999999943611 0 39.9999999906208 120.000000009402 200.000000015154 400.000000002058 400 319.999999994202 440.000000016905 439.99999998247 120.000000016951 40 -79.9999999963052 -79.9999999940655 -80 -80 -80 -40.0000000157456 -40.000000009743 -79.9999999963052 -40.0000000097884 -79.9999999938836 -40.0000000036948 2.46700437799179e-09 8.67430571702077e-09 39.9999999963052 3.69482222537726e-09 -5.77572400366846e-19 -5.79672663640907e-19 40.0000000010914 159.999999972579 -79.9999999973511 -80 -239.999999977138 -40.0000000101068 -39.9999999963052 -79.9999999796955 40.0000000064801 80.0000000065029 120.000000002831 120.000000013097 119.999999986039 239.999999995509 439.999999991837 480.000000004445 519.999999993338 400.000000000705 280.000000003013 319.999999982845 40.0000000141426 80.0000000006139 79.9999999895067 0 -6.84394763021144e-09 40.0000000142563 200.000000003695 239.99999999261 200 200.000000003695 240 159.999999989302 79.9999999929742 80.0000000251816 159.999999985857 120.000000017883 279.999999989188 199.999999996305 399.999999989143 480.000000014575 440.000000003695 759.999999978468 600.000000000136 800.000000025636 680.000000021805 559.999999970578 639.999999988961 679.999999981549 560 559.999999996305 320 279.999999981389 319.999999970078 320.000000011084 480.000000007526 240
40.0000000064119 -40 119.999999999113 240.000000002808 199.999999996328 160.000000002854 200 160.000000002899 119.999999996328 160.000000005889 200 120.00000000299 159.999999996328 120.000000003672 120 119.999999996919 119.999999996328 80.0000000031264 160 80 40.0000000068667 160 239.999999992656 320.000000010198 240.000000006958 239.999999993383 200.000000007003 240 200 199.999999996601 120.000000003422 160.000000007117 160.000000003467 160.000000003854 240 200 240.000000003558 240.000000007344 359.999999985448 319.999999999954 239.999999985357 200 199.999999996328 159.999999988938 159.99999999626 279.999999992474 480 480.000000003808 480.000000003831 440.000000003854 480.000000000409 599.999999992656 680 639.999999996055 480.00000000764 279.999999995691 399.999999992315 519.99999998422 600.000000004059 720 720 560 399.999999996328 239.999999992156 119.999999992133 120.000000011016 240.000000011585 199.999999988393 -599.999999987142 -800.000000042303 -2520.00000000433 -2640.00000001306 -2880.00000000226 -2879.99999999927 -2680.00000001911 -2639.99999999188 -2679.99999998819 -2600 -2520.00000001637 -2679.99999999093 -2600.00000000367 -2639.99999999909 -2679.99999999907 -2760.00000000272 -2679.99999999168 -2640.00000000367 -1759.99999998595 -39.9999999989654 -3.67208485797424e-09 -279.999999996328 -360.000000003672 -400.000000002547 -400.000000009868 -320.000000019531 -200.000000026898 -320.000000014688 -400.000000014688 -360.000000022032 -320.000000014688 -360.000000011016 -319.999999994998 -320 -279.999999996328 -360 -360.000000003672 -360.000000008788 -399.999999996328 -400.000000010323 -400 -360 -320 -319.999999985823 -279.999999991053 -239.999999996328 -200.000000007344 -200 -200 -200 -200 -200 -159.999999998215 -80 -80 -80 -80 39.9999999907573 80.0000000036721 80.0000000112322 119.999999994361 80 119.999999990644 120.000000018758 160.000000013074 80.0000000094246 79.9999999926558 120.00000000947 159.999999994179 80 79.9999999882675 -39.999999994111 2.23963070311764e-09 -39.9999999903935 0 0 -39.9999999939973 -3.67208485785526e-09 0 0 -9.76569935917029e-09 -5.6149407721034e-19 0 40.0000000098339 39.9999999938154 79.9999999937927 160.000000002558 359.999999986403 239.999999982708 320 240.000000007344 120.000000027376 400.000000003672 240.000000003672 559.99999998164 279.999999982549 79.9999999935426 79.9999999963279 359.999999997169 199.999999993474 159.999999992656 320.000000000773 359.999999986812 359.999999997056 559.999999983049 679.999999971987 600.000000003672 879.99999997126 559.99999999327 279.999999993247 40 79.9999999926558 40 3.67208485778012e-09 0 1.42335920821166e-08 160.000000006912 280.000000021623 240.00000001063 120.000000003672 80 40.0000000073442 160 399.999999996328 240.00000001786 360.000000017906 519.999999993065 480.000000007162 640.000000003672 679.999999982049 599.999999985425 520.000000014506 600.000000003672 480.000000007299 240.000000000023 559.999999974295 559.999999985266 480.000000003672 560.000000003672 399.999999988893 320.000000003672 160.000000014961 320.000000003672 360 240.00000001877
0 -40.0000000027626 40 200 279.999999994338 240 200.000000005753 279.999999989802 240 240.000000003649 239.999999993383 199.99999999701 200 120.000000003649 120 120 80 79.9999999968736 80 39.9999999968281 6.84394763025876e-09 80 120 159.999999993474 120.000000003649 80 160.000000003649 240.000000000296 200 199.999999996351 200 160 159.999999996533 280.00000000349 359.999999999864 479.999999992701 560 440.000000000068 200 199.999999996351 160 160.000000003672 80.0000000073442 80.0000000037175 240.000000000091 440.000000003649 519.999999996351 479.999999992383 280.000000003649 119.999999999795 -39.9999999963506 -39.9999999885517 -159.999999992428 -79.9999999924057 40.0000000039677 -40.0000000112891 7.27595760319983e-10 -239.999999999613 80.0000000004093 -39.9999999918373 -40.0000000036493 -40.0000000004775 159.999999965655 -120 -120.000000007844 -160.000000011516 -239.999999988461 -39.9999999963506 -160 -440.000000024534 -799.999999924523 -720.000000006594 -1080.00000005765 -2040.0000000219 -2200.00000000288 -2199.99999999555 -2040.0000000073 -1600.00000000422 39.9999999963506 -160.000000020907 -1680.00000005746 -2520.00000000551 -2680 -2719.99999999635 -2719.9999999917 -2679.99999999068 -720.00000000523 -80 -79.9999999916213 -40 -200.00000000955 -319.999999996351 -280 -319.999999995157 -320.000000008515 -320 -320 -319.999999996351 -279.999999996351 -240.000000008629 -320 -320.000000005025 -399.999999996351 -400 -399.999999996351 -400.000000005116 -519.999999994861 -479.999999991189 -399.999999991167 -320 -319.99999999477 -280.000000003649 -240 -279.999999991053 -200 -200 -200.000000003649 -200 -200 -199.999999994566 -80 -79.9999999945203 -40.0000000091518 5.52518031276677e-09 200.000000001899 320 200 159.999999994384 120.000000003979 279.99999998704 120.000000020282 40.0000000057071 -39.9999999927013 39.9999999905981 79.9999999963506 40.0000000036493 39.9999999941792 0 -79.9999999941338 -7.29869498119089e-09 39.9999999940883 0 -3.64934749086408e-09 79.9999999867214 40.0000000023533 40 40 79.9999999902798 79.9999999963507 79.9999999902343 119.999999996351 119.999999996351 80 120 159.99999999377 40.0000000135515 159.999999987449 80 0 120.000000016337 360.000000019099 599.999999989052 1159.99999997988 680.000000012869 599.999999996351 479.999999979741 439.999999965894 319.999999990598 160.000000010948 280.000000012415 120.000000020486 639.999999997033 520.000000021896 719.999999996987 960.00000001337 880.000000003649 759.999999916395 319.999999993247 439.999999997397 319.999999989552 600.000000035539 1120.00000001323 1200.0000000631 1200.00000000972 1039.99999993989 719.999999988688 639.999999971146 359.999999999682 399.999999982049 279.999999992974 279.999999985653 400 600.000000000205 800.000000014415 719.999999978581 440.000000021896 639.999999981981 640.000000036221 480.000000039938 719.999999996396 599.999999978149 240 160.000000007321 199.999999999954 199.999999988984 -39.999999988961 -79.9999999963507 -80 279.999999996351 200.00000002226 159.999999984993 239.999999928616 360
-40.0000000027398 -2.50470935715939e-19 39.9999999991587 279.999999993565 200 200.000000010107 200 200.000000003627 200 240 280 239.99999999701 160 160 120 80 40.0000000036266 79.9999999927468 79.9999999895976 119.999999993201 80.0000000031946 239.999999996373 279.999999993133 160.000000000364 80 119.999999999682 160 120.000000003354 120 359.999999989347 319.999999985903 199.999999999818 160.000000003627 240 200.000000007253 279.999999996464 160.000000007185 79.9999999928377 120.000000007253 360.000000018133 319.999999992701 280.000000010971 240 119.999999996282 120.000000007367 160 360.000000000159 679.99999998912 399.999999996373 279.999999992519 239.99999998887 79.9999999927468 39.9999999891202 40.0000000036266 79.9999999924057 40 39.999999985107 399.999999992747 480.000000007685 240.000000011335 279.999999984539 119.999999996373 239.999999992747 40 80 120 80.0000000036266 119.99999999211 199.999999997692 80.0000000043087 7.04858393481345e-10 -200.000000015962 -439.999999991996 -159.999999996373 -120.000000002831 -2000.00000004399 -640.000000009459 479.999999982901 39.9999999909733 -40.0000000081627 -1800.00000002829 -2679.99999999542 -2519.99999999177 -2560.00000001551 -2240.00000002697 -719.999999993793 -4.2466677166653e-19 40 -4.7293724492195e-09 -79.9999999963734 -320 -280.000000008424 -359.999999996373 -360 -360.000000012119 -399.999999996373 -320.000000004911 -399.999999992747 -399.999999995043 -399.999999991394 -240 -320 -240.000000003627 -200.00000000507 -160 -200 1.6927970134886e-08 639.999999978797 -80.0000000139948 -240.000000003627 -239.99999999477 -239.999999994748 -239.999999991098 -200.000000008924 -200 -200.000000005343 -200 -200 -200 -80 -80 -40.0000000018531 -39.9999999853685 120 159.999999990825 159.999999990803 80.00000002766 200 160.000000018531 159.999999997965 40.0000000036266 40 3.62661012280026e-09 79.9999999927468 5.77529135625842e-09 39.999999994202 -39.999999986926 39.9999999905299 39.9999999963734 120.000000009516 240.000000005912 199.999999994066 199.999999988086 160.000000002353 119.999999992747 119.999999990348 119.999999990325 80.0000000036266 160 160 120.000000003627 80.0000000159503 160.000000002558 239.999999990166 200.000000016087 240 119.999999993724 40.0000000162231 2.69437805457734e-09 40.0000000036266 80.0000000172463 240.000000015541 719.999999984391 1799.99999995613 1159.99999996975 759.999999976933 519.999999994247 320.000000023203 320.000000006548 319.999999969407 359.999999992747 160 239.999999996373 240.000000013915 599.999999961813 999.99999996229 1359.99999996893 1240.00000001401 1319.99999999781 1199.99999998278 1039.99999999637 559.999999971806 720.000000013347 880.000000027921 1160.00000001745 1279.99999998944 680.000000028422 1079.99999998241 879.999999957731 599.999999996601 480.000000011084 639.999999982049 599.999999996373 440.000000010743 560.000000007253 720.000000007162 720.000000010812 719.999999981912 480.000000028922 679.999999996373 560.000000003627 319.999999989075 160.000000007321 80.0000000109708 3.62661012265184e-09 -79.9999999963734 -40.000000011039 -80 -80 -80 -200 -39.99999994061 200.000000003331
39.9999999927922 -39.9999999963961 120.000000002785 239.999999997192 120 160 159.999999992792 160.000000003604 200 279.999999996396 160 160 120.000000003604 120 120.000000003604 199.999999986107 279.999999996396 279.999999996874 319.999999993247 280.000000006776 200.000000006798 279.999999989575 239.999999993156 240 279.999999989507 199.999999996692 160.000000000273 160 399.999999996169 239.999999996601 40.000000003422 160.000000000159 200.000000003467 160.000000007094 320 319.999999996396 360 360 679.999999992792 599.999999996373 240.000000003649 79.9999999963279 240 40.0000000036039 -79.9999999998636 400.000000003763 200.00000000415 239.999999995987 440.000000011039 559.999999996396 400.000000003604 240.000000003604 240 240.000000003604 320.000000003968 439.999999992406 479.99999998837 360.000000004036 360.000000007662 359.999999995919 359.999999988688 359.999999988665 199.999999992247 279.999999996965 519.999999976603 399.999999988574 239.999999987915 280.000000003604 280.00000000789 320.000000004309 400 200.000000003604 -399.999999992019 -480 -199.99999998837 279.999999988347 399.999999991928 -5.37738742463733e-09 -200.000000008117 -119.999999992792 -40.000000000955 -240.000000002626 -240.000000003604 -120.000000006185 -40.0000000046498 0 -4.68389771370884e-09 -159.999999996396 -200.000000011937 -280 -280 -280.000000003604 -280.000000003604 -359.999999996396 -280 -320.000000003604 -399.999999998693 -440.000000003604 -399.999999991439 -240 -159.999999991394 -40.0000000036039 -200.000000003604 39.9999999862553 440.000000007446 560.000000013836 240.000000007742 -319.999999984027 -360 -319.999999994793 -279.999999996396 -200 -200 -200 -200 -239.99999998571 -200 -160.000000008993 -199.999999994589 -80 -79.9999999963961 -80 39.9999999908937 -5.52518031277305e-09 -39.9999999872443 -9.17452780363303e-09 -9.19726517067136e-09 79.99999999078 79.9999999907572 79.9999999871306 39.9999999943157 40.0000000036039 5.72981662065353e-09 5.75255398819581e-09 0 5.79802872380275e-09 -39.9999999869715 2.24986251840595e-08 120.000000022544 359.999999986903 280.000000009516 400.000000011869 480.000000005957 520.000000015564 559.999999993997 439.999999996396 239.999999986744 80.0000000121418 119.999999996396 80.0000000036039 159.999999990257 120 199.999999984027 160.000000006207 240 239.999999983891 120.000000006276 199.999999980196 1.35287336877359e-08 80.0000000027399 199.999999993634 200.000000002785 719.999999997192 1279.99999999357 1320.00000003949 879.999999997124 600.000000013006 679.999999996396 320.000000010812 359.99999999576 560.000000013188 679.999999992792 839.999999986721 1159.99999995227 840.000000020054 840.000000001 959.999999983413 1080.00000002523 1040.00000002119 1280.00000001802 1279.99999999961 1160.00000002162 799.999999988847 1000.00000002459 880.00000002824 1200.00000000055 1359.99999997888 1200.00000000338 920.000000007003 960.000000014234 800.000000013938 680.000000010675 759.999999989188 999.999999974864 520.000000017951 600.000000003604 479.999999996419 639.999999996396 879.999999996396 680.000000007208 800.000000014484 1159.99999997432 679.999999963507 80.0000000476689 -119.999999985425 -40.0000000036039 -79.9999999961915 -40.0000000074351 -79.9999999925421 -40.0000000110845 -159.999999992497 -80 40
-40.0000000008413 80 200.000000007162 239.999999993611 279.999999996419 200.000000003581 120.000000012915 120 120 159.999999996419 80.0000000065483 159.999999996419 160 200.000000003035 319.999999996942 359.999999996419 320.000000003581 280.000000003581 319.99999999327 360 359.999999996805 360.000000003217 320.000000007162 159.999999996419 240 319.999999986221 400 400.000000003354 200.000000007162 159.99999999302 120.000000007003 120.000000003445 160.000000003581 160.00000000349 279.999999996419 280.000000003581 360 400.000000007162 399.999999999977 479.999999996373 599.999999989188 439.999999996328 320.000000003581 120 240.000000007321 359.999999999818 599.999999996214 599.999999999773 360 480.000000003581 360.000000011039 399.999999988938 360 359.999999992474 320.000000007549 360 279.999999995987 239.999999995964 399.999999996419 360.000000007662 400 360 360 400.000000011926 480.000000007776 519.999999992201 400 119.999999992156 240.000000011448 160.000000015052 279.999999992087 279.999999992065 -159.999999992042 -120.000000007162 -599.999999975148 -279.999999986664 -79.9999999937245 -119.999999987438 -79.9999999919055 -40 0 40.0000000045816 4.60431692772571e-09 39.9999999871647 -80.0000000046498 -200.00000000108 -280.000000008265 -319.999999991712 -319.999999991689 -319.999999995248 -319.999999991644 -360.000000004798 -360 -360 -359.999999987972 -360 -359.999999996419 -360 -200.000000004957 -239.999999996419 -200.000000005002 -239.9999999799 280 600.000000000603 40.0000000092314 -439.999999992838 -319.999999998442 -80.0000000035811 -200 -240.000000005207 -200 -200 -239.999999991144 -200 -200 -199.999999991076 -200 -200 -199.999999985596 0 79.9999999764668 -80.0000000054797 79.9999999964189 39.999999998056 40.0000000035811 39.9999999964189 40 1.2778400558402e-08 40 3.58113538873798e-09 39.9999999943157 5.7070792531145e-09 40 40 0 39.9999999964189 200 359.999999998681 359.999999996419 359.999999978752 320.000000007162 480.000000019031 520 439.999999996419 360.000000021589 360.000000013188 320.000000006048 200.000000018213 279.999999990325 199.999999996419 120.000000023022 159.999999996419 239.999999992838 159.999999999045 240 240.000000006253 200 279.999999992838 159.99999999726 39.9999999964189 6.36646291241267e-09 160.000000003581 200.000000016405 919.999999988529 920.000000000705 1079.9999999913 1240.00000001593 1080.00000000422 879.999999978513 519.999999976114 639.999999965326 799.999999976024 799.999999996419 919.999999986176 720 920.00000001387 920.000000044827 1000.00000000317 1159.99999997929 1199.99999999678 920.000000010402 919.999999978513 1239.99999998627 960.000000017633 1520.00000001074 1240.00000000313 1120.00000001392 1039.9999999753 920.00000002475 760.000000007162 799.999999985903 1079.9999999787 520.000000003581 999.999999939393 480.000000007162 640 560 599.999999985585 720.000000003649 839.999999978331 400.000000010743 39.9999999998636 -200.000000007321 -199.999999985312 -239.999999981685 -80 -80 -80.0000000074351 -79.9999999964189 -80 -200 -199.999999988893 -39.9999999924512
80 159.999999992883 240.000000006344 279.999999993633 279.999999996442 240.000000006412 280 160.000000006457 120.000000002922 120 79.9999999964416 39.9999999964416 40.0000000071168 119.999999993406 120.000000010175 200 240.000000013324 280.000000009811 279.999999992883 40.0000000237492 280 240.000000003558 160 319.999999993474 200.000000003831 320 280.000000010448 279.999999996646 -3.37649908033219e-09 -3.39923644787651e-09 0 120 120.000000003558 80.000000010607 199.99999998937 279.999999996464 320.000000014234 559.999999996419 440 639.999999996441 600.000000003558 519.999999989211 599.99999998563 200.000000007117 -39.9999999927013 -160.000000010675 -239.999999999773 -80.0000000035584 160 400.000000007708 400 400.000000003899 440 320 280.000000003558 280 239.999999999545 279.999999996442 280 240.000000003558 319.999999996442 319.999999995873 359.999999996442 400 520.000000003558 520.000000011335 439.999999992201 519.999999996442 120.000000003558 240.000000007867 240 359.999999992883 199.999999999181 -79.9999999893248 -160.000000003558 -759.99999999111 -199.999999991974 -279.999999991951 -200 -200 -160.000000001 -119.99999999186 -159.999999988279 -159.999999996442 -319.999999989325 -359.999999996442 -319.999999995316 -279.999999996442 -279.999999995271 -280 -280 -280 -280 -399.999999991599 -399.999999991576 -319.999999991553 -359.99999999153 -279.999999995066 -200.000000003558 -319.999999996442 -200.000000008561 80.0000000029331 480.000000002978 79.9999999913712 -359.999999989325 -239.999999998442 -199.99999999842 -160.000000007117 -239.999999991257 -200 -199.99999999477 -160 -160 -200 -200 -160.000000005343 -200 -200 -200 -200 -199.999999996442 -79.9999999980787 0 0 39.9999999908937 9.12905306904629e-09 39.9999999908482 0 -3.55839801968352e-09 5.66160451803314e-09 5.68434188557545e-09 159.999999997181 239.999999995055 480.00000000083 559.999999989791 520 440.000000024579 480.000000002285 439.999999996442 240 200 200 200.000000007117 200.000000003558 199.999999997556 200 200.000000003558 319.9999999843 240.000000003558 240.000000009675 359.999999990303 360.000000003558 280.000000012369 280.000000003558 280.000000002672 279.999999990189 240 200.000000006298 199.999999990121 160 120 40 80.0000000035584 160.000000003558 480.000000013574 479.999999996442 1000.00000000883 1280.00000001602 1120.00000001367 920.00000004161 1719.99999993145 1360.00000002697 1399.99999998672 960.000000043531 959.999999996442 520.000000031207 959.999999975864 720.00000001387 920.000000027785 1639.99999998996 1679.99999998221 1160.00000002382 1039.99999999975 1080.00000001045 1039.99999999288 1119.99999999644 1440.00000000356 1079.99999998946 1079.99999998944 839.999999985948 840.000000014165 839.999999982299 1000.00000001775 759.999999989325 839.999999992861 880.000000007162 879.999999978513 919.999999996442 920.000000003672 639.999999985494 119.999999999841 -320.00000000374 -280 -159.999999996214 -79.9999999890747 -80 -80 -79.9999999925649 -80 -79.9999999925194 -80 -80.0000000110845 -120.000000007549
120.00000000274 320 240.000000003536 240.000000003536 240.000000006366 280.000000003536 159.999999996464 120 159.999999996464 120 120 120.000000003536 6.54836185249916e-09 40 40 119.999999996919 40.0000000031036 159.999999993338 160 159.999999996828 40.0000000067303 40 120.000000003536 40 7.0713213059945e-09 -39.9999999964643 -79.9999999931333 -40 -40 -3.39923644757605e-09 6.84394763023673e-09 119.999999996464 160.000000003536 199.99999999651 80.0000000176556 120.000000010607 279.999999999977 360 399.999999996464 560.000000003626 559.999999996464 640 680.000000003695 3.27304405780835e-08 40.0000000035357 -160 -280.000000003285 40 239.999999996464 440.000000007708 999.999999992588 440 400.000000007458 319.999999996055 240 160.000000007526 199.999999995987 159.999999995964 200.000000007594 280 240.000000011175 279.999999996464 360 439.999999995828 280.000000011266 279.999999995782 280.000000007776 400.000000000728 520 320.000000003536 200.000000007867 3.53566065237271e-09 -40.0000000035357 -200 -319.999999988506 -319.999999996464 -519.999999983993 -240 -200 -240 -240 -359.999999983765 -360 -360 -360 -320 -280.00000000822 -360 -320.000000008265 -320 -280.000000004775 -280 -359.999999992929 -400.000000001307 -440 -360.000000003536 -359.999999995089 -280 -319.999999995043 -200.000000012051 -79.9999999949978 120.000000005025 200.000000021214 -319.999999991394 -439.999999996464 -159.999999993304 -160.000000003536 -239.999999986142 -80.0000000051841 -239.999999991257 -200.000000003536 -200 -160 -160 -160 -239.999999991121 -160 -200 -160 -160 -119.999999998079 -3.53566065314246e-09 -40.0000000035357 -39.9999999964643 79.9999999979877 0 40 -5.61612978344815e-09 199.999999981651 240.00000002193 959.999999990154 1159.99999996303 680.000000027308 999.999999995566 1120.00000000613 920.000000025739 1080.00000000582 879.999999991701 440.000000005866 359.999999996464 240.000000003536 319.999999992929 280.00000001545 359.999999990484 320 319.999999993975 320.000000006048 280 240.000000022794 360.000000003536 359.999999997397 399.999999990303 280.000000006185 399.999999980514 280.000000003536 280.000000003536 240 160.000000003536 160.000000003536 199.999999993656 200 159.999999986539 79.9999999935881 79.9999999935653 0 159.999999997647 280.000000030116 479.999999976887 320.000000027762 200.000000003536 80.0000000268528 120.000000013688 79.9999999933607 80.0000000035357 80 159.999999993292 200.000000010266 359.999999996464 759.999999993224 800.000000064995 1559.99999999975 1639.99999997548 1480.00000006595 1400.00000002792 1200.00000004854 1319.99999996179 1639.9999999651 1239.99999998948 880.000000031685 1119.99999998246 960.000000007049 680.000000031821 919.999999992906 999.999999989302 920.000000003536 800.000000003354 680.000000021328 560.000000007208 399.999999992929 -40.0000000035357 -160.000000021623 -279.999999996237 -199.999999978286 -80 -80.0000000073669 -80 -80 -80 -80 -80 -80 -80 -120
320 320 240.000000007026 279.999999997192 240 160.000000003513 199.999999993611 120 40 39.9999999964871 2.60590973522643e-19 40 3.51292328559813e-09 3.51292328559813e-09 39.9999999934289 -120.000000003081 -159.999999993383 -80.0000000066393 -40.0000000035129 39.9999999996589 80 119.999999996487 240.000000003513 -79.9999999929741 -200 -40.0000000035129 -3.33102434524354e-09 -80 -39.9999999966235 -40.0000000035129 -120 3.02525153169965e-19 40.0000000035129 79.9999999965098 80 160 240 280 280.000000007117 360.00000000714 360.000000003513 320.000000010698 440.000000010721 519.99999999277 199.999999992519 79.9999999964871 3.78577169579755e-09 239.999999996487 439.999999992656 879.999999992974 1040 720 440.000000003922 240.000000007458 240.000000007481 200.000000003513 120.000000007526 239.999999992451 200.000000003513 240.000000007594 280.000000011721 360 280.000000007662 240 400.000000000682 280.000000011244 319.999999995759 320 239.999999999227 80.0000000070258 0 40 -239.999999996487 -319.999999988574 -280 -439.999999992974 -879.999999995532 -320 -399.999999996487 -400.000000008049 -400 -400 -400 -360.000000004627 -399.999999991837 -360 -320 -359.999999996487 -359.999999995271 -280.000000008265 -320.000000008288 -360.000000004798 -439.99999999518 -440.000000004843 -400.000000008379 -439.999999990223 -360.000000003513 -319.999999998579 -280 -160.000000003513 -39.9999999929741 360.000000006537 119.999999989905 -320 -319.999999994907 -120 -160.000000003513 -160.000000008674 -239.999999992974 -159.999999998306 -80.0000000035129 -40.0000000017735 -40.000000008788 -120.000000003513 -160 -200.000000003513 -199.999999994634 -159.999999996487 -160 -160 -40 3.51292328511689e-09 -39.9999999944975 0 -79.9999999909391 39.9999999909164 -39.9999999944066 39.9999999908709 159.999999997874 200.000000011323 240.000000004024 360.00000002766 879.999999990757 520.000000078603 919.99999998821 880.000000012824 840.000000009334 799.999999990644 559.999999990621 439.999999990598 320.000000004798 360.000000002422 439.99999999053 440 480.000000006003 599.999999996487 559.999999996487 560.000000000955 639.999999993906 599.999999992065 599.999999983322 480.000000006162 400 320.000000003513 240.000000016769 160.000000018758 160.000000006276 239.999999990189 159.999999990166 160.000000006344 119.999999993634 159.999999993611 80.0000000035129 80 120.000000002944 120 80.0000000035129 120.000000003013 160 160 80.0000000101068 80.0000000167461 160.000000003513 199.999999989825 200.000000006685 239.999999989461 159.999999996783 360.000000013506 640.000000017315 959.999999976319 1199.99999995866 1200.00000000351 920.00000001038 800.00000000365 960.000000027762 400.000000017474 560.000000031412 1039.99999994402 560.000000007003 399.999999992974 239.999999999977 40.0000000105842 80.000000010607 -79.9999999964871 -79.9999999894612 -80.0000000035129 -80.000000007185 -159.999999964143 -119.999999992974 -199.999999971214 -239.999999989211 -80.0000000035129 -120 -79.9999999926558 -79.9999999964871 -80 -40.0000000074124 -80 -80 -79.9999999890065 -80 -40.000000011039 -80
399.99999999726 280 240 240.000000006298 200 159.999999997146 80.0000000069804 40.0000000034902 39.9999999935881 -80 -79.999999999477 -80 -80.0000000069804 -80.0000000104705 -40.0000000065484 -120.00000000349 -159.999999993406 -120 -79.9999999933607 3.17186277298679e-09 6.98037183555013e-09 -39.9999999965098 -40 80.0000000034902 -80.0000000170416 -160.000000006798 -79.9999999931788 -40 -2.94615238562426e-19 -39.9999999966008 -79.9999999965098 -40.0000000034902 40 1.04705577538569e-08 80.0000000035129 79.9999999999545 239.999999982481 280.000000000091 400 399.99999999651 239.999999989052 360.000000007344 160.000000003899 479.999999989302 320.00000000399 39.9999999965098 239.99999999651 519.99999999651 480 919.999999996146 919.999999999613 639.9999999961 439.999999992156 360 319.99999999651 279.999999992519 239.999999995987 319.999999995964 280.00000000349 240.00000000698 240.000000007594 279.999999995873 320 440.000000004172 519.999999995805 520.00000000349 519.999999992269 319.999999991473 119.99999999651 -40 -399.999999988688 -279.99999999651 -280 -240.00000001138 -280.00000000349 -760.000000000955 -360 -360 -320.000000016007 -360 -359.999999998931 -320 -320.00000000349 -320.00000000349 -320 -320 -320 -360 -360 -280.00000000349 -360 -360 -440 -360 -359.999999995134 -280.00000000349 -159.999999998579 -120.000000016848 -280 -159.999999993531 5.00222085931492e-09 8.51514414534952e-09 160.00000000349 -2.06114236789302e-08 -400.00000000698 -440.00000000349 -360.000000005139 -360.000000006833 -320.000000001694 -359.999999982606 -119.99999999128 -119.999999986005 -4.60274312097528e-19 -40 -160 -120.000000014177 -239.999999994634 -160 -160.00000000349 -159.999999991076 -39.9999999910528 3.49018591757568e-09 5.50244294524641e-09 39.9999999909846 40.0000000055479 4.86065545102992e-19 0 0 119.999999990871 39.9999999965098 400.00000000349 640.000000007924 400 559.999999988495 680.000000026716 719.999999988404 520.00000000698 800.00000000349 560.000000009356 679.999999990621 599.999999988177 599.999999982549 440.000000005957 479.99999999053 400.00000000349 439.999999980969 440.000000009538 479.99999999651 360.000000010471 440.00000000349 440.000000015768 400.000000002672 400 359.99999999651 320 239.999999990257 160 159.999999987403 120.000000002831 120.000000006344 80.0000000127329 160 200.000000002922 240.00000000349 279.999999990052 239.99999999651 279.999999993497 239.999999993474 320 279.999999986858 199.999999996896 159.999999989893 200.000000006639 279.999999996828 280.000000010175 240.00000000349 239.99999999651 199.999999996737 320.000000013756 799.999999986221 960.00000000698 520.000000006708 520.000000006867 640.00000000349 439.999999989666 239.999999982595 -40 -80 -199.99999999302 -199.999999992974 -199.999999992951 -239.999999985948 -160.000000003604 -79.9999999965098 -40 -240.000000007162 -319.999999992815 -160.000000007208 -279.99999999302 0 -6.3486112013434e-19 -80 -79.9999999891884 -80 -79.9999999891429 -80 -80 -80 -80 -80 -80 -80 -80
319.999999993793 279.99999999377 240 200 159.999999993702 80.0000000006139 39.9999999936563 -79.9999999965325 -80 -80 -80.0000000034674 -80 -199.999999983572 -159.999999990894 -120 -159.999999996533 -240 -160.00000000972 -199.999999993383 -199.999999996828 -160 -160 -199.999999999773 -79.9999999963279 -79.999999993247 -239.999999989757 -40.0000000001364 40.0000000137561 80.0000000000909 79.9999999966007 2.9663795365406e-19 79.9999999930651 119.999999996533 39.9999999965325 40.0000000034674 1.05387698558749e-08 199.999999993065 240.000000007162 520.000000007208 839.999999989279 520.000000010584 559.999999996737 400.00000000739 600.000000007185 399.999999992792 319.999999993065 560.000000000318 640 560.000000000364 880.000000000387 879.999999991837 559.999999992633 479.999999996078 479.999999992588 400 359.99999999601 319.999999996532 279.999999984993 240.000000004059 359.999999988984 359.999999996532 400.000000004127 519.999999996533 520.00000000764 639.99999998887 599.999999996533 439.999999988052 159.999999991473 120.000000003467 -280 -280.000000003467 -320 -399.999999996533 -319.999999996532 -360.000000008845 -1000.00000000445 -320 -280.000000004491 -280 -359.999999991996 -320.000000006935 -320 -319.999999990791 -320 -359.999999991883 -320 -320 -359.999999995293 -240.000000012926 -279.999999995248 -280.00000001171 -440 -360.000000003467 -280 -200.000000003467 -120.000000006935 -79.9999999985562 -160.000000013335 -279.999999991576 -120.000000008447 -80.0000000034674 -240.000000005025 -279.999999993065 -280.000000001603 -319.999999993065 -120.000000001648 79.9999999948613 -80.0000000173372 -240.000000001751 -40.0000000069349 -80 -80 -40 39.9999999930651 -120.000000003467 -160 -199.999999991167 -200 -160 -199.999999991098 -40.0000000034674 -8.94715412774166e-09 0 40 39.9999999979195 -39.9999999909619 1.81216819318569e-08 40.0000000056161 -5.63886715099248e-09 80 80.0000000091518 240.000000004479 239.999999990803 440.000000034595 599.999999995373 520.000000001137 560.000000002353 560.000000006935 600.000000010664 519.999999983709 519.999999994088 320.000000016337 400.000000005957 440.000000006935 480 400.000000022453 519.999999990484 440.000000013006 519.999999996533 399.999999993065 320.000000002672 360 359.999999996533 320 280.000000013165 200.000000006253 160.000000019486 199.999999990234 119.999999993679 239.999999996533 240.000000009834 279.999999996533 280.000000009879 320 359.999999996533 319.999999990052 240.000000016473 320.000000006526 200.000000003467 240 360 320 319.999999989893 240.000000006389 239.999999996783 359.999999993065 240 160.000000023726 399.999999989757 599.999999983072 440.000000034333 639.999999996624 759.999999962131 719.999999996533 320.000000003445 79.9999999791953 -280 -120.000000010448 -120 -80.0000000035584 -80.0000000034674 -79.9999999929287 -120.000000003467 -120.000000007117 -359.999999978786 -400 -519.999999992815 -280.000000010675 -439.999999982072 -40 0 0 -40.0000000034674 -80 -80.0000000073669 -40 -79.9999999965326 -80 -79.9999999965326 -80 -40.0000000109708 -80 -119.999999988984
280 240 279.999999996555 160.000000006253 119.999999996555 40 -39.9999999965553 -40 -80 -159.999999996555 -159.999999996078 -159.999999996555 -120.000000000432 -160.00000000648 -160.000000003445 -200.000000006526 -240 -239.999999989984 -200 -200 -120.000000006639 -120 -120 -160 -160.000000006889 -159.999999993111 -160 -279.999999996555 -199.999999996555 -79.9999999931106 -39.9999999931333 279.999999996555 80.0000000069349 120 320.000000003445 359.999999996646 39.9999999964416 160 480.000000007048 719.999999996373 680.000000007094 680.000000003672 480.00000000025 479.999999996282 440.000000003149 359.999999986221 600.000000007572 600 520.000000003831 999.999999996965 920 639.9999999961 440.000000007367 480 360.000000003968 399.99999999601 400 280.000000008072 400.000000004059 519.999999996555 520.000000004104 479.999999999318 520 480.000000007617 559.999999995805 520.000000005343 320 -40.0000000008185 -159.999999993111 -280.000000004309 -280 -240.000000012153 -360 -520.000000005355 -919.999999996555 -1159.99999999211 -519.999999998977 -200.000000003445 -160.000000006889 -200.000000006889 40.0000000125624 200.000000001137 40.0000000092086 199.99999999892 279.999999991905 319.999999980343 -360.000000012812 -360 -280 -239.999999998693 -200.000000004775 -280 -280 -200.000000004843 -120.000000004866 -120.000000013222 -119.999999991644 -120.000000013313 -80.0000000034447 -80.0000000049795 -120.000000006889 -159.999999994975 -80 -80 -80 -80.0000000034447 -40 -40 80.0000000068894 160.000000012096 239.99999999477 159.999999994748 240.000000000216 40.0000000052978 -40 -120.000000008788 -159.999999994634 -160.000000003445 -200 -160 -80 -5.4797055781822e-09 -39.9999999965553 0 0 -39.9999999965553 3.44471118296516e-09 40 1.25282895159516e-08 3.4447111824776e-09 9.12905306904629e-09 160.000000006889 280.00000000573 399.999999995418 439.999999994225 240.00000002193 479.999999997624 559.999999983822 400.000000027933 560 600.000000000978 399.999999988131 320.000000028206 320.000000012869 240 360.000000010334 279.999999987904 200.000000006889 200.000000009538 240.000000003445 280.000000003445 359.999999990393 240 319.999999993793 360.00000000623 279.999999997192 319.999999996555 240.000000006298 239.999999996555 199.999999993656 279.999999990189 319.999999986721 240 360.000000003445 439.99999998364 240.000000006889 320.000000006503 519.999999980423 560 559.99999998654 440 280.000000016678 399.999999993361 240.000000013551 200.000000013574 279.999999996555 599.99999999327 399.999999976433 519.999999989666 599.999999979514 720.000000007026 640.000000027512 720.000000013733 640.000000003445 279.999999975773 -40.0000000311843 -239.999999989598 -159.999999996555 -80 -159.999999996555 -79.9999999965553 -40.0000000034447 -120 -160 -240 -319.999999996555 -400 -279.99999998214 -240.000000003445 -40.0000000034447 0 -119.999999989257 -79.9999999965553 -79.9999999926558 -80 -80 -40.0000000108571 -40.0000000108798 -40.0000000109026 -119.999999989075 -80 -80 -240.000000004763
239.999999996578 240.000000003422 200 159.999999997192 40.000000003422 -3.42197381517672e-09 -6.29825080953182e-09 -159.999999996578 -160.000000002922 -160.000000003422 -239.999999993611 -160 -200 -199.999999996965 -239.99999999352 -200 -199.999999996578 -160.000000003422 -160.000000009993 -160 -120 -79.9999999967826 -119.999999990098 -120.000000006685 -79.9999999967144 -40 -40.000000010175 -160 -160 -239.999999999977 -80 119.999999993179 520.000000003422 120 440.00000001387 639.999999996464 359.999999996578 -79.999999996578 320.000000003604 240.000000024977 319.999999996351 360.000000007344 560.000000003422 640.000000003717 520.000000003104 279.999999999659 599.999999996578 560.000000003422 640.000000000409 999.99999998887 1039.99999999612 679.9999999961 439.999999996078 359.999999996055 320.00000000739 360.000000006844 360 400.000000004036 480.000000004059 520 600 639.999999989029 719.999999996578 799.999999995828 720.000000003422 479.999999995782 79.9999999872784 -119.999999985471 -280.000000003422 -280 -280.000000004331 -480.000000006844 -920.000000009709 -1080.00000000782 -1200 -959.999999998977 -79.9999999989541 279.999999995509 519.999999980707 759.999999996578 640 479.999999990837 320 280 160 119.999999990678 120.000000008106 79.9999999884494 39.999999993156 -160.000000010266 -320.000000008197 -399.999999988358 -279.999999984914 -199.999999996578 -200.000000006844 -319.999999991689 -200.000000003422 -80 -80 -79.9999999881766 -80.0000000050022 -79.999999994975 -39.9999999915303 -79.999999996578 1.70302882898276e-08 0 80.000000003422 39.9999999982606 160.000000005184 239.999999984527 279.99999999477 279.999999994748 560 120.000000012142 -40 -160 -160 -240 -160.000000003422 -160 -159.999999994543 -40 0 8.94715412821901e-09 0 5.57065504788294e-09 9.01536623036764e-09 40.0000000021941 119.999999990939 39.9999999909164 5.68434188608112e-09 119.999999994293 440.000000003422 319.999999978229 399.999999994225 279.99999999078 200.000000003422 160.000000016109 280.000000006844 319.999999990689 280.000000015245 280.000000021225 439.999999993156 440.000000045316 440.000000030855 360.000000002603 479.999999984482 320 400 320.000000003422 320 280 359.999999990393 359.999999996578 320 439.999999983481 319.999999987449 319.999999986858 280.000000006844 280 359.999999990212 280.000000013233 279.999999986744 280.000000012869 400.000000006457 480.00000000648 599.999999990075 400.000000006844 440.000000006548 400.000000013415 519.999999989984 439.999999993156 399.999999996783 319.99999997965 1119.99999992241 759.999999999864 679.999999983117 600.000000013506 519.999999993156 359.999999996624 400.000000013665 759.999999996578 599.999999982799 -120.000000003513 -239.99999999651 -279.999999993065 -239.999999993156 -120.000000010402 -3.42197381542084e-09 -80.0000000070258 -200 -239.999999989507 -240.000000007094 -240.000000007117 -279.999999996578 -319.999999989416 -400 -320.000000003422 -200 -39.9999999893248 0 0 0 0 -80 -80.000000003422 -80 -79.9999999891429 -80 -79.9999999925194 -80 -680.000000270938 -4359.99999999658
-79.9999999870624 40.0000000006366 119.999999997215 80.0000000033992 39.9999999971692 -40.0000000057071 -120.000000006275 -159.999999997101 -160 -160.000000002944 -120.000000003399 -160 -160 -160 -160 -120.000000009561 -120 -200 -160 -160 -120.000000003195 -120 -159.999999996601 -120 -80 -79.9999999966007 -79.999999996669 -1.01522346079709e-08 -40.0000000033992 -160 -160 -2.92734695138575e-19 280.000000006867 319.99999998962 120.000000006912 480.000000003399 239.999999992883 -40.0000000069804 120 200 359.999999996601 520.000000006798 600 519.999999999682 160.000000006798 120.000000004127 520.000000003786 560.000000003808 879.999999985971 1000.00000000385 879.999999992247 520.000000002899 359.999999999477 280.000000007344 519.999999989234 359.999999999409 399.999999995987 679.999999997237 880.000000000659 959.999999988438 879.999999991792 680.000000002672 519.999999984902 280.000000003399 320.000000006798 119.999999995782 -79.9999999966007 -159.999999996601 -240.000000003399 -280 -639.999999991667 -720.000000010198 -440.000000016996 -240 -7.82165443449598e-09 200.000000001046 320.000000003399 919.9999999966 800.000000006798 639.999999995464 479.999999995441 440.000000003399 359.999999991996 280.000000004627 160.000000003399 120.000000017383 119.999999996601 200 240.000000006059 200 240 199.999999991803 -1.35969457902771e-08 -200.000000008242 -280 -80 39.9999999966008 -39.999999981469 -200.000000001558 -119.99999999344 79.9999999915985 40 -3.39923644787651e-09 39.9999999966008 120.000000001694 80.0000000033992 80 80.0000000051614 160 160 200.000000008629 799.999999970646 199.999999994725 79.9999999981014 -120.000000001921 -160 -160 -160 -160 -160 -159.999999991144 -120.00000000548 -40.0000000055024 -39.9999999944748 -40 -4.73399341973273e-19 -3.39923644787651e-09 80 39.9999999977604 80.0000000022624 5.684341885115e-09 5.70707925314046e-09 160.000000015927 319.999999985096 280.000000003399 360.000000003399 559.999999983982 440 359.999999987335 400.000000009288 480.000000005912 360.000000003399 400.000000006799 360 439.999999996601 399.999999993975 399.999999991303 359.999999993929 320 280.000000006116 319.999999993861 319.999999993838 320.000000006185 360.000000013006 360.000000003399 360.000000002854 399.999999981174 439.999999996601 599.99999999028 879.999999947886 560.000000002967 320.000000016587 320.000000006412 400.000000010198 480 479.999999996601 759.999999999704 520 760.000000006548 1040.00000000997 1040 999.99999998355 1199.99999998348 639.999999993474 720.000000006571 480.000000016996 800.000000084231 760.000000010107 839.999999932152 680.000000023795 560.000000003422 920.00000000689 399.999999982731 -400 -359.999999986289 -400.000000003536 -280.000000017155 -280.000000000182 -160.00000001761 -160.000000021078 -400.000000003649 -639.999999985857 -680.000000007094 -720 -639.999999993202 -519.999999996601 -439.999999996601 -399.999999982594 -40 -39.9999999893475 0 0 0 0 -3.39923644850256e-09 -80 -80 -80 -80.0000000074579 -2119.99999986063 -4439.9999999966 -4440.00000000753 -4360.00000004114
-80 -80 -80 -80.0000000061845 -80.0000000028308 -120 -120 -120 -120.000000002922 -120 -119.999999996623 -120.000000000387 -120 -199.999999993588 -199.999999993565 -159.999999996919 -160 -159.999999996623 -160 -119.999999996623 -40.0000000001819 -80.0000000065938 -120.000000003376 -120.000000003263 -80.000000006662 -80 -40.000000003331 -3.37649908033219e-09 39.999999993247 -80.0000000067757 -120 -160 -119.999999993156 200.000000010243 79.9999999690658 -79.9999999963052 -120.000000003376 -240.000000006958 -119.999999979059 200.000000003376 480.000000000273 640.000000003376 479.999999999682 119.999999992906 3.37649908033219e-09 280.000000007526 560.000000011357 800.000000003809 1039.99999998558 999.999999999523 639.999999996123 399.999999988825 280 399.999999993247 400.000000011312 799.999999993247 959.999999993883 959.99999999934 919.999999992565 840.000000006753 719.999999995896 680 439.999999989097 200 -39.9999999966235 -40 -280.000000000864 -800.000000000887 -840 -719.999999998135 -439.999999994714 -320.000000011107 -239.999999995623 -200.000000009823 39.999999993247 360.000000016712 960.000000005559 960.000000002262 639.999999995487 439.999999996624 280.000000003376 280.000000003376 200.000000004604 199.999999995373 239.999999991974 359.999999996623 200.00000000806 159.999999996623 120.000000008106 160.000000003376 160 120.000000004798 199.99999999518 160.00000000822 -80 -80 -119.999999983424 -3.37649908074868e-09 -40 80 159.999999996623 120.000000003376 -4.26088488344356e-19 5.07043296238436e-09 79.9999999982833 -39.9999999830152 40.0000000085151 199.999999982924 159.999999994816 319.999999998454 639.999999988017 199.999999994748 80 39.9999999894044 -120.000000005321 -200 -160 -160 -160 -120.000000008811 -120 -120.000000008856 -160 -120.000000003376 -40 8.94715412775122e-09 79.9999999888132 3.37649907985812e-09 40 80.0000000056616 80 -9.08357833299414e-09 -39.9999999875172 120.000000018258 239.999999996623 200.000000021726 479.999999984982 359.999999994156 320.000000009243 439.999999997488 400.000000000841 479.999999984755 360.000000009334 320.000000009356 320 399.999999984573 399.999999993952 360.000000006071 399.999999984436 320 360 319.999999996624 439.999999990439 320.000000006207 359.999999990393 360.000000009629 559.999999996146 920.000000005844 1080.00000000381 760.000000034686 919.999999984277 639.999999967326 800.000000012483 679.999999993884 840.000000022453 839.999999954093 879.99999999975 799.999999983572 680.000000016473 840.000000009948 1039.99999996365 1119.99999999352 799.999999996851 920.000000013324 919.999999983254 880.000000006708 880.000000023567 1080.00000001351 1120.00000001015 1039.99999999316 880.000000013506 239.999999982754 -199.999999989643 -240.000000010266 -360.000000010289 -560 -399.999999975546 -520.000000006753 -920.000000017383 -1279.99999998987 -1439.99999998282 -1439.99999998312 -1359.99999999359 -1359.9999999719 -1080.00000000338 -1039.99999998271 -839.999999989439 -640 -480 -200 0 0 0 -79.9999999966235 -880.000000254772 -3279.99999996477 -4360.00000000404 -4479.99999999662 -4480 -4400.00000000338 -4960 -4960 -4960
-40 -6.7075234253441e-09 39.9999999877218 79.9999999966462 39.9999999966462 -9.56106305238845e-09 -80 -80.0000000062528 -119.999999996646 -120.000000002944 -159.999999997033 -159.99999999402 -119.999999996646 -159.999999996965 -159.999999996646 -160 -159.999999993543 -120 -79.9999999966462 -40.0000000033538 -80 -80 -80 -80 -40.0000000033538 119.999999993338 160 160 80.0000000033765 160 119.999999996646 -119.999999996646 -160.000000000114 -439.999999996646 -239.999999986107 -399.999999996828 -480 -399.999999996646 -440 200.000000000273 639.999999999704 680 200.000000003354 199.999999992929 120.000000007481 280.000000003763 959.999999996646 960.000000003354 1040 879.9999999995 519.99999999277 439.999999993292 599.999999989939 519.999999996646 800.000000003968 1000.00000000734 1040.00000000737 960.000000002671 679.999999995237 520.000000014143 479.999999995896 279.999999994327 -120.00000000415 -239.999999995828 -160.000000009231 -600.000000004218 -760.000000001773 -1279.99999999756 -879.999999980434 -519.999999994736 -320 -320 -159.999999998977 80.0000000054456 840.000000006708 1039.99999999665 720.00000000224 640.000000003354 439.999999995487 319.999999998818 199.999999995441 160 80.0000000079581 160.000000004627 239.999999996646 240.000000008015 79.9999999953161 39.9999999966462 -40 -80 -79.9999999899387 40.0000000067075 40.0000000067075 -80.0000000033537 -3.3537617123799e-09 0 -3.35376171278786e-09 39.9999999966462 39.9999999966462 6.70752342557573e-09 119.999999991644 80.000000005025 3.35376171278786e-09 40.0000000067075 1.35401023722182e-08 79.9999999881766 40.0000000084924 200 879.999999984755 680.000000006355 239.999999986187 199.999999994748 199.999999988017 3.35376171234367e-09 -3.35376171234177e-09 -8.69704308570412e-09 -40.0000000140858 -120.000000005389 -120 -120.000000006707 -120 -120 -120 -120.000000003354 -120.000000003354 -120.000000003354 40.0000000033538 120 119.999999994361 119.999999994338 80.0000000056843 80.0000000057071 160 120.000000009106 119.999999988449 199.999999993292 319.999999987472 200 200.000000012574 320.000000003354 480 319.999999984777 439.999999978775 320.000000003354 280.000000006003 279.999999996646 320 359.999999990575 399.999999996646 520 479.999999987153 480.000000006162 360.000000006185 400.000000009561 439.999999989939 320.000000009607 680.000000005411 679.999999987403 520.000000042053 640.000000013415 840.00000000972 1280.00000001885 1559.99999998047 960.00000002882 1000.00000004956 559.999999996874 760.000000023067 1040.00000000988 1320.0000000099 999.999999990075 959.999999993179 920.000000003354 959.999999996646 880.000000010016 880.000000006708 959.999999989939 840.000000026853 1239.99999997643 959.999999983163 560.000000020304 159.999999969475 159.999999952229 -80.0000000068667 239.999999993292 3.35376171162878e-09 -119.999999993065 -200.000000006958 40 -440.000000014006 -1440.00000001038 -1719.99999999295 -1599.99999999293 -1280.00000000335 -1159.99999999288 -960.000000006708 -960.000000010516 -919.999999989461 -879.999999989438 -719.999999986062 -319.999999996646 0 -1799.99999999665 -4279.99999990609 -4400.00000000734 -4480 -4440.00000000335 -4560.00000003106 -4960 -4960 -4960 -4960 -4960 -4960
-40 119.999999998863 160.000000002785 239.999999996669 240 200.000000003331 120 -2.41417185417603e-19 -80 -119.999999997055 -80 -40.000000006321 120.000000003331 -80.000000003331 -80.0000000063892 -159.999999996669 -120.000000003331 -80.0000000064574 -79.9999999968509 -40 -40.000000003331 -119.999999996783 -79.9999999967599 39.999999996669 120.000000003286 200.000000003308 160.000000003331 239.999999989961 160 120.000000003331 199.999999999909 0 -199.999999996669 -200.000000006821 -360.000000010175 -599.999999993133 -560 -520 -280.000000003331 -159.999999996373 -79.9999999893703 480.000000014006 559.999999996669 200.000000003331 439.99999999626 800.000000003763 880 920 880 920 1000.00000000388 999.999999996669 1000.00000000392 1079.99999999667 999.999999992065 720.000000002672 800.000000007344 879.999999995964 639.999999996669 359.99999999925 280 -39.9999999914507 -799.999999982526 -720.000000007503 -640.000000012585 -2239.99999995248 -1559.99999998788 -640.000000010925 -760.000000003331 -280.000000010971 -400.000000003331 -240.000000003331 80.000000007708 560.000000009868 879.999999993338 680.000000011107 520 440 320.000000006662 80.000000006662 79.9999999954411 40 40.0000000046043 120 199.999999992019 240 120.000000003331 159.999999988631 80 -40.0000000047521 -80 -40 -159.999999988518 -40.000000001512 119.999999993338 119.99999999178 4.91127138957409e-09 8.26503310195107e-09 40.0000000016257 79.9999999983515 120.000000003331 280.000000008356 199.999999991621 159.999999988267 159.999999988245 119.999999996669 160.000000003331 160.000000008492 400.00000002259 359.999999991041 159.999999996669 120.000000013836 80 5.29780663738643e-09 40.0000000019895 80 0 -120 -120 -159.999999996669 -159.999999996669 -120 -160 -160 -120.000000003331 -120.000000008902 -79.9999999821512 79.9999999910528 79.9999999887223 40.0000000089926 119.999999994316 80 80.0000000090608 80.0000000057525 40.0000000091063 159.999999997533 400.000000012483 320.000000009175 520.000000015064 519.999999984891 360.000000006662 400 360 320 280.000000002672 279.999999993975 240 279.999999993338 440.000000006094 559.999999997215 440.00000000947 480.000000006162 439.9999999843 360.0000000162 800.000000012028 880 639.999999990393 1159.99999998631 1239.99999998668 1439.99999997066 720.000000027239 960.000000029706 1200.00000005513 1599.99999996427 1159.99999999354 1039.99999999352 599.999999983663 560.000000006526 600 719.99999999676 679.999999973556 560.000000009948 399.999999993361 280.000000006662 320.000000003354 359.999999996669 400.000000020123 360 239.999999989893 440.000000000136 240.000000016496 599.999999932288 240.000000023931 80.000000003331 40 280.000000020805 -120.000000024204 39.9999999827082 -240.000000007003 -680.000000020714 -1320.00000001038 -1400.00000000333 -1319.99999998957 -1200.00000000379 -1239.99999999334 -1319.99999999284 -1240.00000001437 -1240.00000000055 -1080.00000001446 -1600.00000005469 -4359.99999999334 -4479.99999999667 -4440 -4919.9999999707 -4960 -4960 -4960 -4960 -4960 -4960 -4960 -4960 -4960
279.999999996692 280 279.999999996692 200.000000006116 240 240 239.999999996692 199.999999996692 159.99999999377 39.999999994111 -40 -80 -80 -80 -79.9999999969418 -80 -40.0000000095156 -80 -79.9999999968509 -1.36424205265947e-10 -79.9999999966917 -40 -79.9999999935198 199.999999990121 240.000000003308 279.999999996692 240 240 279.999999993315 160.000000006617 80 -39.9999999998636 -40.0000000066166 119.999999993201 -200.000000006821 -360 -400.000000003308 -480 -519.999999999704 -239.999999996373 -159.999999989393 320 320.000000004081 360.000000007026 840 839.999999992929 640.000000007571 680.000000007617 839.999999996692 1080.00000000055 1080 1079.9999999922 1120.00000000392 1039.99999999606 680.000000010584 400.000000001944 239.999999995282 360.000000010652 520.000000006617 519.999999998454 -640.000000003308 -680.000000004127 -1080.00000000583 -1519.99999998015 -1559.99999999427 -1599.99999999487 -959.999999991519 -840.000000002353 -399.999999995714 -240.000000007617 -359.999999988029 199.99999998015 319.999999989006 719.999999988984 640.000000006616 520.000000003308 440 280 239.999999995487 119.999999992156 39.9999999921329 0 80 80.000000004627 120.00000000465 199.999999992031 160.000000004684 199.999999991985 80 3.30828697730618e-09 -6.61657395539843e-09 -80 120 79.9999999982265 -4.86579665408301e-09 4.88853402162545e-09 79.9999999917804 8.24229573440955e-09 160.000000009913 80.0000000049795 120 199.999999994975 159.999999991644 120.000000016757 159.999999996692 119.999999996692 120.000000003308 200.000000003308 360.000000013676 399.999999984379 239.999999991462 79.9999999947477 79.9999999947249 40 4.4004716118119e-19 40 -4.43808248028892e-19 -80.0000000053887 -120 -160 -160 -160 -160 -160 -239.999999982288 -120.000000005571 -119.999999996692 40 80 80.0000000033083 80 80 160 120.000000005753 119.999999994225 80 80 120.000000027455 360.000000003308 440 320 280.000000003308 200 320 240.000000021316 280.000000002717 360.000000015405 399.99999998455 480.000000002785 439.999999987767 520 559.999999987222 559.999999983891 360.000000034345 1080.00000000662 1239.99999998051 1119.99999999806 1039.99999998378 1559.9999999681 1320.00000000304 1119.99999998396 1039.99999998083 1040.00000000682 1039.99999999669 1159.99999996409 840.000000003172 560 839.999999993384 520.000000013233 440.000000003308 400.000000003308 399.999999996692 320.000000013256 360.000000009925 360.000000006617 560.000000006708 600.00000000673 720.000000003308 1080.00000002364 1359.99999998658 279.999999976228 5.66043570579383e-19 280.00000002035 519.999999976023 40.0000000135287 40.0000000102432 -200.000000003649 80.0000000374826 39.9999999929969 -440.000000020668 -880.000000017405 -1040.00000000662 -1240.00000000331 -1279.99999998577 -1120.00000000662 -1159.99999998953 -1040.00000000331 -1400.00000005045 -4319.99999999669 -4480 -4400.00000002183 -4960 -4960 -4960 -4960 -4960 -4960 -4960 -4960 -4960 -4960 -4960 -4960
319.999999993975 319.999999997237 319.999999996714 319.999999990621 280 279.999999997146 279.999999993838 199.999999996714 120 160 79.9999999937472 -40.0000000032855 -79.9999999969873 -40 -40.0000000030582 -40.0000000030809 -79.9999999968963 -40.0000000032855 -80 39.9999999967144 -3.28554960989249e-09 -3.28554960989062e-09 79.9999999999545 240.000000003285 240 200.000000009902 319.999999996714 359.999999996714 320 280 240 240 319.999999996714 400.000000003286 -80.0000000135969 -240.000000003536 -520.00000000274 -520.000000003581 -639.999999989507 -239.999999996373 -40.0000000032855 79.9999999967144 320.00000000698 440.000000007435 760.000000006571 640.000000003285 640.000000003285 760.000000000523 1159.9999999896 1080 1120.00000000059 1159.9999999922 600.000000002649 320.000000009197 -40 160.00000000399 7.29869498139853e-09 39.9999999780357 -40.0000000040586 -520 -759.999999989325 -759.999999992588 -760.000000003285 -1160.00000000657 -1120.00000000238 -839.999999995782 -559.999999994804 -440.00000000133 -160.000000010857 39.9999999934289 280.000000001046 319.999999985789 759.999999993429 600 440.000000003286 439.999999992269 280.000000003285 200 40.0000000045134 40 40.0000000032855 119.999999996714 120 80.0000000079126 80.0000000079353 40.0000000112323 120.000000007969 160.000000007992 119.999999996714 119.999999996714 80.0000000032855 199.999999990405 119.999999996714 80 79.9999999902684 -8.17408363138158e-09 80 119.999999996714 80.0000000049567 160 239.99999998671 159.999999996714 80 119.999999998215 80.0000000134719 199.999999994884 160 200.000000005161 320.000000013654 799.999999957538 200 119.999999994748 120 80.0000000052978 119.999999994679 40.0000000053433 0 -8.67430571771717e-09 -120.000000005411 -120.000000003286 -120 -160 -159.999999996714 -160.000000003286 -160 -120.000000003286 -40.0000000055934 4.61301825514683e-19 80 80.0000000056616 119.99999999103 80.0000000032855 80 80.0000000032855 80.0000000115506 80.0000000090836 159.999999996714 160 120.000000012437 160 199.999999994088 240.000000012506 320 279.999999997306 280 359.999999996714 439.999999993952 479.999999984573 480.000000005616 480.000000006116 640.000000008993 600.000000006162 799.999999994202 440.000000012415 1279.99999998097 919.999999987495 1639.99999998686 1679.99999999343 1399.99999997372 1359.99999999014 919.999999987063 879.999999996533 800.000000022521 1040.00000001615 1079.99999996114 799.999999996806 600.000000006503 440.000000032628 640 359.999999993429 280.000000003286 200.000000019804 240.000000009925 240.000000003286 239.999999993315 240 520.000000013779 520.000000053842 600.000000020123 919.999999996942 359.999999996464 200 79.9999999931333 279.999999985903 799.99999998289 639.999999966053 -240.000000003672 -1480.00000009609 400.000000034583 40.0000000103114 -280.000000023954 -679.999999989643 -1000.00000001747 -1080 -1039.99999999671 -1160.00000000447 -3840.00000003632 -4400.00000000721 -4479.99999999277 -4920.00000000725 -4960 -4960 -4960 -4960 -4960 -4960 -4960 -4960 -4960 -4960 -4960 -4960 -4960
279.99999999726 280 280.000000000477 279.999999993929 240.000000002831 240 279.999999996737 240 200 200 160 79.9999999872216 -6.27551344174207e-09 -39.9999999967372 -40.0000000030582 -40 -79.9999999968963 -39.9999999968736 -39.9999999967372 -40 119.999999993543 159.999999996737 200.000000009743 280.000000006526 280.000000003263 279.999999993474 399.999999993406 240.000000003263 359.999999989984 320.000000003263 320.000000003263 400.000000003809 560.000000003467 479.999999983004 -7.02584657148282e-09 -279.999999996737 -719.999999996737 -519.999999993156 -640 -319.999999996373 -80 480.000000011016 560.000000000432 600.000000010243 480.00000000748 560 600.000000007049 880.000000003263 960.000000001137 1360.00000000771 1000.00000000468 119.999999995464 39.9999999967372 320.000000000682 239.999999996032 3.99040800402895e-09 -40.0000000007503 -119.999999996737 -279.999999995941 -360.0000000049 -920.000000007367 -640.000000003263 -520.000000001489 80.0000000059913 -359.999999999068 -320.000000003263 -279.999999987278 80.0000000085265 520.000000009595 1159.99999999021 1319.99999997395 1000 960.000000002148 799.9999999956 439.999999995578 319.999999995555 120.000000007731 -159.999999993474 -9.7884367278317e-09 79.999999987665 80 120 120 79.9999999967372 80 80 80.0000000093678 159.999999995293 159.999999987278 7.75262104418342e-19 -8.03765942613974e-09 159.999999983879 80 119.999999995157 79.9999999886086 160.000000003263 40 159.999999983606 0 80.0000000032628 80 80.0000000100499 119.999999994952 120 160 40.0000000116415 239.999999991598 240 359.999999996737 679.999999987642 279.999999986278 120 40 0 4.33998402951895e-19 39.9999999913939 8.62883098263344e-09 -39.9999999934744 -120.000000003263 -120.000000005434 -120 -120.00000000548 -120 -159.999999991212 -120 -120 80 80 40.0000000056389 5.66160451807498e-09 39.9999999943157 79.9999999967372 159.999999982015 119.999999996737 120.000000003263 159.999999994202 159.999999996737 239.999999990894 200.000000005866 200.000000003263 439.999999981651 200.000000009197 279.999999994043 279.999999990757 280.00000000274 280.000000012551 360.000000002785 519.999999981333 479.999999987381 559.999999996737 680.000000006139 600.000000036971 720.000000028001 759.99999998106 960 999.999999981242 1160.00000002209 1520.00000001237 1319.9999999841 999.999999993838 800.000000006367 1079.9999999841 959.999999971089 960.000000006526 680.000000003194 600.000000012915 559.999999986994 719.999999996737 599.999999993474 439.999999996692 319.999999990143 120.000000019759 279.999999990098 199.999999996737 199.999999993315 279.999999996737 639.99999998654 480.000000020032 480.000000033879 640.000000010061 1319.99999998962 639.999999993156 39.9999999963961 80 480.000000003649 520.000000017133 120.000000013483 -240.000000017224 -279.999999979468 79.9999999826855 -319.999999993474 -560 -920 -1520.00000000504 -2120.00000000184 -4159.99999996865 -4480 -4400.00000001442 -4960 -4960 -4960 -4960 -4960 -4960 -4960 -4960 -4960 -4960 -4960 -4960 -4960 -4960 -4960
359.99999999726 280.000000005525 320 280 319.999999993929 319.999999993906 280.000000000364 239.99999999676 240.00000000324 200 160.000000002967 40.00000000623 -2.4403443657451e-19 -40 -80 -80 -80.0000000032401 -119.999999993634 -80 -3.24007487480931e-09 240 280 280.00000000324 240.000000003263 399.999999986949 360.00000000324 400 359.99999999676 520.00000000324 359.99999999352 559.999999989916 439.999999996555 399.99999999676 239.999999983049 -40.0000000102659 -240 -680.000000020714 -639.999999986357 -680.000000006844 -639.999999975387 -200.000000003649 640 480 440 600 560.000000003763 600.000000002149 3.24007487475774e-09 -3.24007487537658e-09 -199.99999999676 -199.999999992883 120.00000001038 -119.999999994202 -320.000000003945 -80.0000000104478 0 -319.999999986267 -280.000000014552 -440.000000008936 -560.000000007321 -439.999999991792 -80.0000000041268 -120 -159.999999991655 -160 -400.00000000324 -40 560.000000005286 720.000000021532 1399.99999999893 959.999999992428 759.999999998886 839.999999997726 600.00000000648 519.999999986733 239.99999999676 3.24007487506624e-09 -39.9999999955094 -80.0000000032401 0 40.0000000077989 80 79.9999999953957 119.999999995373 40.0000000032401 79.9999999967599 -39.9999999953161 0 7.96944732390265e-09 120.00000000648 79.999999988745 3.88613329186578e-19 199.99999999518 120 159.999999988654 159.999999995111 79.9999999950887 80.0000000081741 80.0000000081968 80.0000000049795 80.0000000032401 119.999999994975 120.00000000324 160.00000000507 160 159.999999998636 120.00000000324 199.999999994839 240.000000005184 679.999999979866 240 119.999999991508 3.24007487506624e-09 40.0000000052978 80 79.9999999967599 -4.34657562502523e-19 -5.3887561080049e-09 -40 -119.999999994566 -120 -120 -120.000000005502 -120 -120 -120.00000000324 8.83346729051699e-09 80 80 80 80 39.9999999967599 119.99999998779 80 80.0000000090154 160 160.000000009061 200 319.99999999352 240 320.00000000324 280.000000015109 359.99999999028 480.00000000598 559.999999990757 479.999999987494 559.999999993952 440.000000015382 480.000000002854 559.999999984527 759.999999990962 800.000000012005 680.00000000324 720.000000018895 999.99999999676 1079.99999999051 1239.99999998724 1240 1079.99999999368 1119.99999998704 1080.00000000949 1039.99999998398 839.99999999676 600 599.999999990303 759.99999999352 680.000000006503 1000.00000000981 760.000000016337 640.000000003331 400.000000006594 360.000000006617 239.999999993361 80.0000000099021 200.000000003445 200.000000009948 280 320.000000003513 359.99999999676 360.000000030116 359.999999976296 0 -3.24007487451003e-09 280.000000027967 919.999999952479 720.00000000324 359.99999997865 -520.000000010721 -160.000000017246 -39.999999986494 -320.000000007049 -1239.99999999028 -2160.00000001804 -2840.00000000775 -4439.99999997474 -4439.99999999608 -4959.99999999676 -4960 -4960 -4960 -4960 -4960 -4960 -4960 -4960 -4960 -4960 -4960 -4960 -4960 -4960 -4960 -4960
360 280.000000003217 319.999999993997 279.999999996783 200.000000006048 279.999999993565 240 280.000000003217 319.999999993861 279.999999996783 319.999999996783 159.999999996783 40.0000000030127 3.03543856716732e-09 -80 -119.999999996783 39.9999999967827 40 -9.58380041917289e-09 159.999999996783 399.999999996783 400.000000003217 480 399.999999996737 479.999999996851 479.999999996692 560.000000003217 599.999999996646 520.000000003376 559.999999990166 439.999999996578 520.000000003672 320.00000000025 159.999999993565 -40.0000000067303 -400 -600.000000003558 -520.000000003217 -600.000000010425 -919.999999985493 -239.999999996351 319.999999996328 360.000000006912 479.999999989347 560.000000010698 280.000000003217 -80.0000000037858 -560.000000001773 -400.000000007049 -200.000000012233 -280.000000027717 -479.9999999961 -439.99999999286 -440.000000003945 -640 -480 -520 -480.000000031412 -279.999999999159 -80.0000000072987 39.9999999935653 -79.9999999926558 -199.999999989416 -160.000000000955 -199.999999995805 -360 -119.999999984061 360.000000019304 1080.00000000857 919.999999996782 639.999999991337 400 360.000000007594 439.999999987983 319.999999987938 159.999999996783 79.9999999890974 -39.999999992292 -3.21733750715889e-09 -3.21733750715706e-09 40 80 40.0000000078216 39.9999999967827 1.43245415491844e-09 39.9999999953388 119.999999992099 -4.7066350812966e-09 -4.7293724488391e-09 80 199.999999992008 120 80 119.999999995157 120.000000004866 159.999999990223 119.999999998306 120.000000004934 160 160 120 199.999999996783 239.999999988518 120.000000011505 160 240 160.000000008356 160.000000003217 240 520 319.999999996783 160 79.9999999947249 80 79.9999999882448 3.21733750709214e-09 3.21733750709031e-09 40 -40 -159.999999991348 -160 -160.000000003217 -160.000000002285 -120 -120 -120 80.0000000055934 80 120 120 80 80 119.999999991053 200.000000005753 200.000000008993 240.000000005798 399.999999987745 400 320.000000003217 519.999999998909 680.000000005389 880.000000032389 1279.99999995365 1199.99999999311 1159.99999998627 1239.99999997549 799.9999999843 559.999999996783 480 480.000000006116 480.000000009061 760.000000003217 680.000000018804 920.000000003217 1039.99999999699 1000.0000000159 1279.99999997764 840 1040 1079.99999999366 919.999999980833 720.000000000045 719.999999990393 680.000000019304 959.999999993565 959.999999996828 800.000000016155 920.000000003217 759.999999987017 519.999999993429 320 400.000000006617 479.999999993361 120.000000003445 80.0000000066848 80 160.000000003217 559.999999969771 240.000000023545 79.9999999899842 40 -39.9999999899387 39.9999999862666 479.999999989438 799.9999999627 560.000000026739 -40 -560.000000013961 -359.999999983345 40.0000000102432 -1080.00000002053 -1840.00000003921 -3360.00000004644 -4400.0000000039 -4959.99999999678 -4960 -4960 -4960 -4960 -4960 -4960 -4960 -4960 -4960 -4960 -4960 -4960 -4960 -4960 -4960 -4960 -4960 -4960
360 320.000000003195 320 240.000000003195 200 200 199.999999997124 239.999999997101 280 320 279.999999997033 240.000000006185 239.999999996987 119.999999996805 40 39.9999999937245 -39.9999999968963 119.999999990484 119.999999993656 280.000000003149 360 440.000000003217 599.999999987176 520.000000006389 639.999999990325 560.000000006503 599.999999996669 639.999999993452 560.000000003013 439.999999996805 439.999999996578 280 280.000000009857 159.999999996214 39.9999999900979 -240.000000006048 -320.000000003558 -479.999999999613 -719.999999989598 -840.000000021328 -599.999999986312 -40.0000000031946 80.0000000036948 439.999999996805 400.000000005844 -79.9999999898478 -439.999999980241 -319.999999997419 -559.999999999363 -439.999999996146 -160.000000010266 -360.000000031571 -1240.00000001177 -1399.9999999705 -1039.99999999681 -959.999999992815 -160.000000023999 -80 -80 40.0000000040814 40.0000000031946 -119.999999996805 -1.78829395722856e-08 -159.999999992633 -120 -280.000000007412 -40.0000000031946 200.00000001279 760.000000006389 440.00000000208 239.999999998863 159.999999992451 200 120.000000010789 120.000000001967 3.55012347975875e-19 -4.46789272210294e-09 39.9999999923148 -39.9999999968054 0 0 -4.58157955981548e-09 39.9999999968054 79.9999999968054 -39.9999999921556 40.0000000046612 80.0000000031946 40 39.999999984152 120.000000004752 119.999999995225 80 119.99999999518 160 159.999999996805 119.999999996805 120 160.000000001739 159.999999995043 120.000000008174 160 119.999999994975 159.999999994952 120.00000000507 160.000000005093 200.000000013426 199.999999996805 160.000000006389 200.000000008379 439.999999996805 519.999999984311 280 159.999999994725 40.0000000084924 80.0000000085151 79.9999999968054 40 79.9999999968054 -39.9999999968054 -119.999999996805 -159.999999991348 -159.999999991326 -80.0000000118916 -120 -120 -120 80 80 120 80.0000000088562 119.999999991121 159.999999993611 160 160 199.999999996805 200.000000015382 1080.00000000845 720.000000002103 559.999999993611 400 359.999999997283 559.999999972613 1159.99999998679 1519.99999998362 1759.99999998838 1800.00000000283 1960.00000000924 1959.99999999681 1479.99999999361 959.9999999529 559.999999997056 440.000000015518 639.999999993815 760.000000003195 719.999999991053 839.9999999843 1039.99999999053 999.99999999352 1239.99999998403 920.000000012597 1040.00000001593 879.999999993611 640 680.000000003194 599.999999993611 560.00000001296 839.999999983913 960.000000006526 799.999999986744 440.000000003195 359.999999990212 280.000000000227 280.000000013029 320.000000016519 439.999999990121 560.000000003513 360.00000000673 319.999999993611 39.9999999932243 3.19460013997759e-09 1.00158104021873e-08 40.0000000036493 279.999999989939 480.000000055115 720.000000006912 719.999999990416 -279.999999951865 -39.9999999968054 -640.000000033788 -319.999999965507 -1719.99999998083 -3680.00000003216 -4280.00000000709 -4440.00000000319 -4960 -4960 -4960 -4960 -4960 -4960 -4960 -4960 -4960 -4960 -4960 -4960 -4960 -4960 -4960 -4960 -4960 -4960 -4960
