NCOLS 229
NROWS 31
XLLCORNER -179
YLLCORNER 10
CELLSIZE 1 
NODATA_value -9999 
-5000.00000001501 -5200 -5000.00000001523 -5200 -5200 -5199.99999998516 -5000.00000001569 -5200 -5199.99999998516 -5000.00000001603 -5200 -5000.00000001626 -5200 -5200 -5199.99999999824 -5200 -5000.00000001683 -5200 -5200 -5200 -5199.99999998516 -5199.99999998516 -5200 -5200 -5199.99999998516 -5199.99999999699 -5200 -5199.99999998516 -5199.99999999665 -5000.0000000183 -5200 -5199.9999999963 -5200 -5200 -5200 -5200 -5200 -5199.99999999562 -5200 -5199.99999999539 -5199.99999998516 -5200 -5000.00000001978 -5199.99999998516 -5200 -5199.99999998516 -5200 -5200 -5200 -5200 -5200 -5199.99999999403 -5200 -5000.00000002103 -5200 -5200 -5000.00000002137 -5199.99999998516 -5199.99999998516 -5199.99999999312 -5199.99999998516 -5199.99999999289 -5199.99999999278 -5000.00000002217 -5199.99999999255 -5000.0000000224 -5200 -5200 -5200 -5199.99999998516 -5199.99999999187 -5200 -5200 -5000.00000002331 -5199.99999998516 -5000.00000002353 -5000.00000001484 -5000 -4600.00000001484 -5200 -5000 -4799.99999998516 -5000.00000000949 -4600.00000000961 -1440.00000003438 -4400.00000007401 -5000.00000002478 -5200 -5000 -4999.99999998516 -2519.99999997445 79.9999999842998 -120.000000002967 -119.999999994884 239.999999994861 440 239.999999997033 639.999999987347 520.00000000523 960.000000001603 1479.99999998846 1479.99999998516 840.000000049113 200.000000001182 -359.999999985164 -360 -439.999999994066 -360 -360.000000004979 79.9999999974875 120.000000011005 40.0000000025579 120.000000005161 200 199.999999988813 120.000000011232 240 199.999999994611 199.999999988631 199.999999988586 120 80.0000000029672 40.0000000057753 79.9999999970328 120.000000005707 199.999999994066 200.000000003035 319.999999997078 160.000000005889 280 479.999999994065 440 560.000000005934 639.999999996851 520.000000002967 759.999999985164 560.000000015154 679.999999990553 320.000000009106 200 79.9999999876309 -159.999999997033 -359.99999998754 -359.999999994065 -439.999999994066 -359.999999983345 -6.70752342482937e-09 -1.01294972402451e-08 -119.999999987699 -159.999999981287 -119.999999988131 -359.999999987131 -280.000000012915 -159.999999996487 -160 -160.000000025511 -359.999999994065 -119.999999997033 119.99999998912 -360 -360 -160.00000003331 -439.99999998663 -360.000000007481 -280.00000001346 -679.999999993452 -1720.00000001484 -2800 -2399.99999998458 -3080.00000000182 -3359.99999997643 -1120 -360.000000005934 -360 -359.999999965212 -160 -119.999999991098 -160 -160.000000002967 -120.000000010039 -159.999999995873 40.0000000029672 4.17230694438354e-09 199.999999982708 -160 -160 480.000000001296 879.999999992747 799.999999984107 640 519.999999989711 319.999999985312 239.999999997033 199.999999991155 -5.92308424562628e-09 -440.000000003001 -440 -360 -280.000000015007 -159.999999997033 80.0000000029672 79.9999999953957 119.999999995373 120 119.999999995339 199.999999984698 119.999999997033 79.9999999970328 79.9999999970328 40 80 119.999999992212 120 80.000000007833 119.999999995111 80.000000001944 40 79.999999992076 80 40 -280.00000001005 -360 -360 -360 -360 -360 -360 -360 -360
-5000.00000001489 -5200 -5200 -5000.00000001523 -5200 -5000.00000001546 -5200 -5199.99999998528 -5200 -5200 -5199.99999999869 -5199.99999999858 -5199.99999998528 -5199.99999999835 -5199.99999999824 -5199.99999999812 -5199.99999999801 -5200 -5200 -5200 -5000.00000001717 -5199.99999999744 -5199.99999998528 -5199.99999998528 -5200 -5200 -5199.99999998528 -5200 -5200 -5000.00000001819 -5199.99999999642 -5200 -5199.99999999619 -5000.00000001864 -5200 -5199.99999999585 -5200 -5000.0000000191 -5200 -5200 -5200 -5200 -5200 -5200 -5199.99999999483 -5200 -5200 -5000.00000002024 -5199.99999998528 -5199.99999999426 -5199.99999999414 -5200 -5000.0000000208 -5200 -5199.99999998528 -5200 -5000.00000002126 -5200 -5200 -5200 -5199.99999998528 -5000.00000002183 -5199.99999999278 -5199.99999999267 -5000.00000002217 -5000.00000002228 -5200 -5000.00000002251 -5200 -5200 -5199.99999998528 -5200 -5199.99999999164 -5000.00000002319 -5199.99999998528 -5200 -5000 -5199.99999997635 -5000.00000002376 -5199.9999999817 -5000 -5199.9999999759 -4800 -5000.00000001472 -5200 -5200 -5199.99999999005 -4799.99999998994 -5199.9999999751 -4999.99999997499 -4399.99999994575 -80.0000000079922 -160 -80 120.00000000806 519.999999991917 840.000000008106 959.999999991166 919.999999999318 759.999999996396 880.000000005889 760.000000005889 679.99999999294 560.000000013688 -359.999999994111 -360 -360 -360.000000005889 -360 120 239.999999997055 200 199.99999998895 199.999999994793 120.000000005889 120 120.000000005889 120.000000011278 120.000000011323 199.999999988631 80.0000000057071 40 119.999999994247 199.999999988449 239.999999999909 319.999999994111 360.000000005843 439.999999991189 359.999999994111 439.999999991121 520.000000000045 880 680.000000014722 639.999999978934 359.999999999864 359.999999996896 359.999999993929 159.999999996851 5.88897819374656e-09 80 -119.999999997055 -160 -360 -360 -360 -360 -280.000000005889 -360 -359.999999994111 -360 -359.999999994111 -160 -279.999999995418 -160.000000014722 -439.999999954639 -160 -160.000000014961 -359.999999976092 -280.000000013142 -359.999999981753 -359.999999966917 -160 -360 -439.99999998663 -280.000000007526 -120.000000003786 -680.000000022851 -2679.99999998528 -2480.0000000068 -3039.99999999117 -3400.00000002045 -1919.99999991468 -2079.99999998533 -599.999999976194 -359.999999977297 -279.999999975114 -160 -160 -79.9999999918373 79.9999999970555 119.999999997055 199.999999989961 -160 -160 -160 -160 680.000000014415 479.999999986062 -360 -359.999999960676 -359.999999963506 3.02406988339516e-09 40.000000005889 -80.0000000029445 -160 -360 -360 -360.000000005889 -439.999999985039 -360 -439.999999996726 -360 -360 -360 -120 80.0000000076284 200 199.999999990541 120 40.0000000077193 39.9999999970555 40 79.9999999970555 79.9999999843794 79.999999992167 40.0000000029445 40 40 40 2.9444890966218e-09 -360 -360 -360.000000005889 -360 -360 -439.999999994111 -360 -360 -360
-5199.99999999983 -5199.99999998539 -5000.00000001501 -5000.00000001512 -5200 -5200 -5200 -5200 -5199.99999998431 -5200 -5199.99999998539 -5199.99999998539 -5200 -5200 -5200 -5199.99999998351 -5199.9999999834 -5200 -5200 -5199.99999998539 -5000.00000001705 -5200 -5199.99999998539 -5200 -5000.00000001751 -5200 -5000.00000001773 -5200 -5200 -5200 -5000.00000001819 -5199.99999998539 -5200 -5200 -5000.00000001864 -5200 -5199.99999999574 -5200 -5199.99999999551 -5200 -5200 -5199.99999999517 -5200 -5200 -5200 -5200 -5200 -5200 -5000.00000002024 -5199.99999998539 -5200 -5200 -5000.00000002069 -5200 -5199.99999999369 -5200 -5200 -5200 -5199.99999999324 -5000.00000002149 -5199.99999998539 -5199.99999998539 -5199.99999998539 -5200 -5000.00000002206 -5200 -5199.99999998539 -5200 -5199.99999998539 -5000.00000002262 -5200 -5199.99999998539 -5200 -5200 -5200 -5200 -5000 -5000.00000002353 -5200 -5000 -5000 -5199.99999997601 -4599.99999998101 -4800.00000002421 -5200 -3319.99999990224 -1120 -4999.99999998994 -5200 -5000 -5000.0000000104 -1079.99999997149 -159.999999997078 -80.0000000029217 79.9999999853912 199.999999994156 640.000000002217 1200 679.999999999056 880.000000005844 640.000000002922 680 959.999999995293 920.000000011141 1040.0000000048 679.999999958175 -360 -360.000000004934 -360.000000005843 239.999999989541 199.999999994156 40.0000000054797 40 80 40 79.9999999944293 120 120 199.999999994566 120.00000000548 199.999999988631 80 200 240.000000002831 400.000000002854 520.000000002876 679.999999991303 560.000000008765 639.999999988267 679.999999979366 1120.0000000034 880.000000011869 559.999999982128 200 119.999999999682 79.9999999939746 40.0000000029217 -80.0000000031491 -160 -199.999999993884 -160 -80.0000000123236 -160.000000008765 -120.000000002922 -160 -360.000000000818 -1159.99999999751 -2239.99999997663 -2079.99999998151 -1439.99999997663 -839.999999969737 -759.999999963847 -1999.99999996973 -2399.99999996087 -2399.99999997063 -2199.99999999479 -1119.99999998313 -160.000000003604 -160 -160 -160 -160.000000018474 -360 -520.000000010755 -599.999999980787 -160 -1079.99999998043 -2680.00000001734 -2679.99999998831 -2920.00000001455 -3639.9999999805 -3800.00000001961 -3640.00000001578 -3799.99999997244 -1599.99999996038 -160.000000020066 -160 -80 -159.999999997078 120.000000005843 280.000000004127 -80.0000000041496 -160 -160 -160 -359.999999964189 -160.000000014609 -360 -280.000000005843 -359.999999991337 -360 -360 -439.999999994156 -919.999999982628 -1799.9999999347 -2999.99999998848 -3639.99999993572 -3160.00000002202 -3639.99999995033 -3640 -639.999999920783 -1199.99999998495 -599.999999988313 -360 -360 -360 -359.999999985391 79.9999999981924 200 199.999999984607 80.0000000029217 79.9999999951797 39.9999999970782 40.0000000048658 80 119.999999996021 40.0000000078558 2.92175172908364e-09 -119.999999986255 -359.999999985391 -360 -360 -360 -360.000000010186 -439.999999989768 -360 -360 -439.999999994156 -439.999999983743
-5200 -5000.00000001478 -5199.9999999996 -5200 -5199.9999999855 -5200 -5000.00000001535 -5199.9999999855 -5200 -5200 -5199.9999999855 -5199.99999999858 -5200 -5199.9999999855 -5199.9999999855 -5199.99999999812 -5200 -5200 -5200 -5000.00000001683 -5200 -5199.99999999744 -5000.00000001717 -5000.00000000278 -5000 -5000.00000001449 -5199.99999999687 -5199.9999999855 -5199.99999999665 -5200 -5200 -5199.9999999855 -5200 -5199.99999999608 -5200 -5199.9999999855 -5199.9999999855 -5199.99999999562 -5000.00000001898 -5000.0000000191 -5200 -5199.9999999855 -5199.9999999855 -5200 -5199.9999999855 -5199.9999999855 -5000.00000001989 -5199.99999999448 -5000.00000002012 -5200 -5200 -5200 -5199.9999999855 -5199.9999999938 -5200 -5200 -5199.9999999855 -5200 -5200 -5199.99999999312 -5199.9999999855 -5199.9999999855 -5199.9999999855 -5199.9999999855 -5200 -5199.9999999855 -5199.99999999233 -5200 -5200 -5200 -5200 -5199.9999999855 -5000.00000000836 -5000.00000002296 -5200 -5200 -5199.9999999855 -5200 -5000 -5000.00000000915 -5199.9999999855 -5000 -4599.99999996652 -4800.00000000961 -5000.00000001449 -5200 -4800 -4999.99999997544 -4799.99999998982 -5199.99999997521 -5000 -3199.99999986602 -119.999999999227 -159.999999997101 679.999999982617 200.000000015984 520 759.999999995521 760.000000007424 1399.99999997988 679.999999997692 640.00000000523 680.000000010505 960.000000005798 1200 400.000000016439 -360 -360 -360 200.000000002899 2.53521648119218e-09 80 120 120 120 120 80 119.999999994407 199.999999994566 200 120 120.000000011369 319.999999997101 399.999999994202 560.000000005661 800.000000017258 760.000000014495 840.000000011573 760.00000005839 799.999999997101 559.999999982242 320.000000008697 160.000000003035 79.9999999940428 -3.26281224238727e-09 -119.999999997101 -160 -359.999999985505 -599.99999998895 -1119.99999997971 -1319.99999999516 -1719.99999994969 -1119.99999997391 -600.000000000773 -1439.99999998012 -2960.00000000216 -3319.9999999846 -3239.99999999516 -3440.0000000054 -3999.9999999568 -3800.00000001722 -4199.99999996817 -4000 -3999.99999996794 -3360 -3640 -3639.99999996402 -1159.99999998989 -199.999999993474 -199.999999993452 -160.000000015461 -439.999999986812 -3279.99999994492 -3319.99999999252 -3159.99999998353 -3800 -3640 -3239.99999999524 -3079.99999999229 -2600.0000000213 -2759.9999999649 -3640 -3640.0000000116 -4399.9999999855 -4399.99999995651 -3360.00000000401 -3320.00000007162 -359.999999986085 -160.000000020407 -160 -359.999999964871 -160.000000014495 -160 -119.999999995805 -79.9999999944634 -160.000000008697 -160.000000027285 -280.00000001437 -360 -2480.00000004154 -3640 -3640 -3640 -3640 -3640 -3640.00000002029 -3640 -3640 -3640 -3640 -3640 -3640 -479.999999971624 -440.000000005798 -440 -440 -440.000000009413 -440 -360 -160 3.47706662956412e-19 40.000000005798 40 40.000000002899 -79.9999999961915 -359.999999985505 -359.999999994202 -360 -360 -360 -360 -360.000000010095 -360.000000010141 -360.000000005798 -360 -360 -360 -360 -360
-5199.99999998562 -5199.99999999971 -5200 -5199.9999999851 -5200 -5000.00000001512 -5200 -5000.00000001535 -5200 -5199.9999999988 -5200 -5199.99999999858 -5199.99999998562 -5200 -5200 -5200 -5199.99999998562 -5000.00000001648 -5000.0000000166 -5000.00000001671 -5200 -5000.00000001694 -5200 -5000.00000001717 -5000.0000000029 -5200 -5200 -5000.00000001762 -5200 -5200 -5200 -5199.99999998562 -5199.99999998562 -5200 -5199.99999999596 -5200 -5200 -5200 -5200 -5199.99999999539 -5200 -5199.99999999517 -5200 -5199.99999998056 -5200 -5200 -5200 -5200 -5200 -5199.99999998562 -5200 -5200 -5200 -5200 -5200 -5000.0000000208 -5200 -5199.99999999335 -5200 -5199.99999999312 -5199.99999999301 -5200 -5000.0000000216 -5200 -5200 -5000.00000002194 -5200 -5199.99999999221 -5200 -5199.9999999776 -5200 -5200 -4799.99999997959 -5199.99999997715 -4800.00000003735 -5000 -5000 -5200 -5200 -4599.99999996601 -5199.99999997635 -5000 -4799.99999999051 -4999.99999997601 -5000 -5000 -5000 -1120.00000004314 -4999.99999998982 -5200 -5000 -5199.99999998562 -519.999999984243 -80.0000000071736 280.000000014438 -80.0000000043883 120.000000012403 359.99999999809 640.000000007822 1560 1200.00000000579 959.999999991371 1039.99999998379 1279.99999998474 919.999999998078 279.999999992281 -119.999999999568 -360 -160 120.000000010777 120 119.999999997442 80.000000005457 120 40.0000000055024 80 119.999999997124 199.999999994611 120 120.000000011232 200 200 279.999999997192 479.999999994429 520.000000002854 919.999999982742 1120.00000005198 1280.00000004059 679.999999976785 240.000000011687 199.999999994134 80.0000000057525 40 -119.999999988313 -80.0000000119144 -120.000000000227 -840.000000001 -2400.0000000278 -2679.99999999366 -2799.99999999776 -2799.99999998815 -2800.00000001296 -3239.99999997334 -3640 -3800.00000001654 -4200.00000001665 -4399.99999998562 -4400 -4400 -4400 -4600 -4600.00000001438 -4600 -4400 -4199.99999998232 -4400 -4199.99999998562 -2760.0000000043 -919.999999934971 -160 -679.99999997699 -3319.99999987718 -3360.00000004616 -3279.99999998389 -3640 -3800 -3640 -3159.99999999905 -2880.00000000288 -1359.99999998399 -2879.99999993819 -2679.99999997254 -2400.00000006821 -3040.00000001438 -3280.00000000575 -3040.00000001378 -3280.00000000979 -4600.00000001438 -4600.00000001438 -1439.99999994416 199.999999941099 -160.000000012449 -159.999999992951 -5.7525539887141e-09 -5.75255398901739e-09 239.999999985766 -359.999999994247 -359.999999994247 -3640 -3640 -3640 -3640 -3640 -3640 -3640 -3640 -3640 -3640 -3640 -3640 -3640 -3640 -3640 -2399.99999982647 -439.999999994247 -439.999999994247 -439.999999994247 -440 -520 -519.999999984698 -439.999999984652 -439.999999984607 -360 -359.999999994247 -439.99999998447 -360 -360 -439.999999984334 -440 -440 -440 -439.999999994247 -360 -360 -360 -439.999999989723 -360.000000010323 -360 -359.999999989586
-5199.99999998573 -5200 -5199.9999999996 -5200 -5200 -5200 -5000.00000001512 -5200 -5000.00000001535 -5200 -5200 -5200 -5200 -5200 -5200 -5199.99999998573 -5199.99999999801 -5200 -5000.00000001648 -5200 -5000.00000001671 -5200 -5000.00000001694 -5000.00000001705 -5200 -5199.99999998573 -5199.99999999687 -5200 -5199.99999998573 -5000.00000001774 -5200 -5200 -5199.99999999619 -5199.99999999608 -5200 -5000.00000001842 -5000.00000001853 -5000.00000001864 -5200 -5000.00000001887 -5200 -5199.99999998573 -5000.00000001921 -5199.99999999494 -5200 -5200 -5200 -5200 -5000.0000000199 -5200 -5200 -5199.99999999403 -5200 -5199.99999998573 -5000.00000002058 -5200 -5200 -5000.00000002092 -5199.99999999324 -5000.00000002115 -5200 -5199.99999998573 -5199.99999999278 -5199.99999999267 -5200 -5000.00000002183 -5200 -5200 -5200 -5000.00000002228 -4999.99999999386 -5200 -5000.00000001427 -5000 -5000 -5000 -5000.00000000881 -5200 -5200 -5200 -5000 -4999.99999999062 -4199.99999997624 -4199.99999997613 -4800.00000002399 -4800.0000000241 -4800.00000002421 -1119.99999997384 -4000.00000012221 -4799.99999998971 -5199.99999997533 -5000 -4599.99999992044 -120.000000002854 -79.9999999877787 759.999999965985 159.999999986369 200.000000004479 560.000000046737 1560.00000000399 1280.00000001427 759.999999986778 640 1039.99999995864 640.000000010959 519.999999995157 4.8885340218554e-09 -360 -359.99999999502 -120.000000000341 40 39.9999999997044 79.9999999971464 79.9999999997499 119.99999999452 119.999999997146 79.9999999973283 0 2.85353962700656e-09 80 5.70707925323129e-09 80.0000000027853 279.999999997146 359.999999997124 439.999999997146 479.999999997101 360.000000005752 280.000000005707 200.000000002763 80.0000000058208 -5.97992766415734e-09 -4.29843112843523e-19 -80 -80.0000000059117 -120.000000003081 -1200.00000001602 -2959.99999996752 -3040.00000000059 -3639.99999998573 -3800 -3799.99999998859 -3999.99999998573 -4200 -4400 -4600 -4000.00000010704 -4800 -4799.99999998573 -4800 -4600.00000003138 -4799.99999998573 -4800 -4800 -4800 -4599.99999996805 -4600 -4600 -3800.00000001802 -2399.99999998003 -2479.9999999783 -2199.99999999511 -2999.99999999715 -3320.00000000173 -3999.99999996703 -3999.99999996692 -2200.00000019336 -3639.99999998288 -3000.00000000188 -2079.99999990101 -2800.0000000414 -2919.99999999895 -3640 -3399.99999996089 -3400.00000000668 -3639.99999998288 -3079.99999999831 -2520.00000002756 -2679.99999999188 -439.999999980423 -280.000000019622 -280.000000005707 -280.000000014006 -359.999999977388 -79.9999999801957 200.000000002854 -359.999999977251 -519.999999994293 -480 -3719.99999999715 -4080.0000000321 -3680.00000000435 -3679.99999999562 -3640 -3640 -3640 -3640 -3640 -3640 -3640 -3640 -3640 -3640 -3640 -3640 -3640 -3639.99999991439 -3640 -3640 -1959.99999982978 -240 -240.000000008561 -360.000000009641 -520.000000104819 -679.999999982879 -1119.99999989692 -440 -520 -519.999999984379 -520 -520 -440 -439.999999989905 -360 -439.999999984107 -360 -360 -439.99999998397 -360 -360
-5199.99999998585 -5200 -5000.00000001455 -5200 -5199.99999999937 -5199.99999998584 -5199.99999998499 -5199.99999999903 -5199.99999998585 -5199.99999998584 -5000.00000001546 -5000.00000001558 -5199.99999998585 -5000.0000000158 -5200 -5199.99999998584 -5199.99999998585 -5200 -5000.00000001637 -5200 -5000.0000000166 -5200 -5200 -5199.99999999721 -5199.99999998585 -5199.99999998283 -5199.99999998272 -5199.99999999676 -5200 -5200 -5000.00000001773 -5199.99999998584 -5200 -5000.00000001808 -5199.99999998585 -5000.0000000183 -5200 -5199.99999999562 -5200 -5000.00000001876 -5200 -5199.99999998584 -5199.99999998585 -5200 -5200 -5200 -5199.99999998044 -5200 -5199.99999998022 -5199.9999999801 -5200 -5200 -5200 -5200 -5200 -5200 -5000.00000002069 -5200 -5200 -5000.00000002103 -5000.00000002115 -5200 -5199.99999999278 -5200 -5199.99999999255 -5200 -5200 -5200 -5000.00000002206 -5000.00000002217 -5200 -5199.99999999176 -5000.00000000836 -5000.00000000847 -5200 -5200 -5200 -5200 -5200 -5200 -4800.00000002342 -4999.99999999062 -4599.99999997152 -3359.99999999333 -2280.00000012592 -4999.99999997601 -3400.00000001698 -4800.00000002421 -3399.99999998179 -5000.00000001029 -5199.99999997544 -5000 -5000 -4599.99999991057 -160 320.000000002831 -519.999999974386 -79.9999999967031 920.000000019804 1479.99999998857 1039.99999998458 639.999999989677 760.000000002831 1039.99999999525 799.999999997601 759.999999981003 199.999999994725 -360 -360 -360 -360 -5.66160451817475e-09 120 39.9999999973966 2.8308022592684e-09 -5.29780663745268e-09 -159.999999994498 -359.999999985846 -360 0 -79.9999999943384 -9.09494701772986e-11 80.000000002808 240.000000002831 240.000000002853 160.000000002831 159.999999997169 159.999999999909 -5.6616045185368e-09 -119.999999994202 -6.34799727823433e-19 -80 -119.999999996965 -120.000000005889 -1919.99999999043 -2879.99999999516 -3640 -3800 -4000 -4200 -4400 -4599.99999998585 -4600 -4600 -4600.00000001654 -4799.99999996919 -3000.00000010061 -4800 -1320.00000003229 -4800 -4999.99999996862 -4800.00000001415 -4800.00000001415 -4999.99999996828 -4799.99999998585 -4600 -4799.99999998585 -4599.99999996783 -3999.99999999602 -2519.99999998786 -2680.00000000734 -3320.00000000259 -3800 -3800 -3799.99999998868 -3440.00000001415 -3080.00000000664 -2759.99999998468 -2679.99999998097 -3800.00000003354 -4200.0000000195 -3999.99999998039 -3639.99999998208 -3360.00000003736 -1480.00000003499 -360.000000011323 -1680.00000014908 -680.000000168143 -160.000000017576 -160.000000034674 -359.999999991746 -160.000000014154 -359.999999985846 -160 -360 -360 -479.999999998567 -3919.99999976787 -4079.99999999434 -719.999999974182 -400.000000253465 -439.999999995885 -1200.00000004748 -2080.00000016029 -3720 -3640 -3640 -3640 -3640 -3640 -3640 -3640 -3640 -3640 -3640 -3640 -3640 -3640 -3640 -3640 -3640 -3640 -3640 -3640 -3640 -200.000000039631 -520 -680 -520.000000005662 -440.000000015666 -440 -440.000000010095 -440 -360 -360 -360 -360 -440 -360
-5200 -5200 -5000.00000001444 -5199.99999998596 -5200 -5200 -5000.00000001489 -5199.99999999903 -5199.99999999892 -5200 -5000.00000001535 -5199.99999999858 -5200 -5000.00000001569 -5200 -5200 -5200 -5200 -5200 -5200 -5199.99999999756 -5000.0000000166 -5200 -5200 -5200 -5199.99999998596 -5200 -5200 -5199.99999998596 -5199.99999998596 -5199.99999998596 -5200 -5199.99999999619 -5200 -5000.00000001808 -5199.99999999585 -5199.99999998596 -5200 -5200 -5199.99999998596 -5200 -5000.00000001887 -5000.00000001898 -5200 -5199.99999998596 -5199.99999999471 -5199.9999999946 -5000.00000001955 -5200 -5199.99999999426 -5199.99999999414 -5200 -5200 -5199.9999999938 -5200 -5000.00000002046 -5199.99999998596 -5200 -5199.99999998596 -5200 -5200 -5200 -5199.99999998596 -5200 -5200 -5200 -5199.99999998596 -5200 -5000.00000001404 -5199.99999997794 -5199.99999999187 -5199.99999997772 -5000 -5200 -5200 -5200 -5200 -5000.00000002296 -5000 -4800.00000002319 -4600.00000000477 -4800 -4200.00000001859 -3360.00000000192 -4800 -3440.00000014688 -2080.00000008705 -4800 -4800 -4999.99999998596 -5000 -5199.99999997544 -5000 -5000.00000001404 -4999.99999985024 -679.99999995033 679.999999953445 -160.000000008424 959.999999954286 1280.00000000842 1040 759.999999978968 640.000000009413 680.000000006696 1199.99999998959 1039.99999999516 559.999999987779 -359.999999995066 -360 -360 -360 -360 -360 -360 -360 -360 -360 -360 -360 -360 -79.9999999943839 2.78532752417975e-09 40.0000000028081 -2.7853275237823e-09 2.85353962681272e-09 5.75255398831026e-09 39.9999999971919 -119.999999988654 -119.999999994247 -80 -159.99999999701 -120.000000000205 -359.99999999203 -1920.000000002 -3319.99999999466 -3800 -4199.99999998596 -4000.00000002979 -4200 -4400 -4400 -4600 -4800 -4600 -4600 -4799.99999998334 -4600.00000003081 -4600 -4599.99999995788 -4800 -4800 -4800 -4800 -4800 -4800 -4600 -4599.99999999613 -4399.99999997192 -3799.99999993285 -3000.00000001011 -2600.00000002527 -2920.00000002512 -3640 -3640.00000002619 -3640 -3359.99999998962 -2999.99999998677 -1920.00000011622 -3800 -4200 -4599.9999999805 -2279.9999999647 -1439.99999999158 -1720.00000000775 199.99999999601 559.999999985152 680.000000021237 240 -119.999999995919 -80.000000002808 -80.000000002808 -359.999999991701 -360 -360 -360 -440 -479.999999985857 -720.000000011676 -2039.99999997042 -1760.00000000538 -1159.99999999101 -719.999999992815 -599.999999992792 -240.000000015655 -239.999999992281 -1280.00000012267 -1880.00000002694 -1440.00000019918 -3640 -3640 -3879.99999998315 -3640 -3640 -3640 -3640 -3640 -3640 -3640 -3640 -2280.00000009547 -2280.00000010027 -3640 -3640 -3640 -3640 -200.000000110219 -160 -160 -600.000000005616 -600.000000015621 -679.999999994384 -600.000000005616 -520 -440.000000010186 -440 -360.000000010277 -360 -439.999999984016 -360
-5200 -5200 -5200 -5200 -5200 -5199.99999998607 -5199.99999999915 -5200 -5200 -5200 -5199.99999998607 -5200 -5200 -5199.99999999835 -5000.00000001569 -5200 -5000.00000001592 -5200 -5200 -5200 -5000.00000001637 -5000.00000001648 -5199.99999999733 -5199.99999998607 -5000.00000001683 -5200 -5200 -5199.99999998283 -5199.99999998607 -5199.99999998607 -5200 -5000.00000001762 -5200 -5199.99999998607 -5200 -5199.99999998192 -5200 -5199.99999999562 -5200 -5200 -5200 -5000.00000001876 -5200 -5000.00000001899 -5199.99999999483 -5200 -5200 -5000.00000001944 -5000.00000001955 -5199.99999999426 -5199.99999998022 -5199.99999999403 -5200 -5200 -5200 -5000.00000002035 -5200 -5200 -5000.00000002069 -5200 -5199.99999999301 -5000.00000002103 -5200 -5199.99999999267 -5199.99999997863 -5200 -5000.00000001393 -5199.99999998607 -5000.00000001393 -5200 -5000 -5000 -4999.99999998607 -5000.00000000847 -5200 -5200 -5200 -5000.00000001393 -5199.99999997289 -5000.00000000915 -4999.99999998147 -4399.99999996277 -3800.00000002342 -3399.99999999231 -2520.0000000063 -3640.0000000113 -2280.00000005372 -4800 -5000 -5000 -5000 -4400.00000003496 -5000 -5000 -5000 -2239.99999991991 -79.9999999805595 -360.000000004479 -159.999999994429 1559.999999984 1479.99999999538 1039.99999999301 439.999999982231 679.999999996066 520.000000049749 839.999999996851 320.000000000341 -360 -359.999999994429 -360 -360.00000000507 -360 -360.000000005571 -360.000000005207 -360 -360 -360.000000005343 -439.999999994429 -360 -360 -360 -80.0000000027853 -119.999999994407 -119.999999988813 39.9999999943611 0 -80 -159.999999997215 -159.999999997215 -160.000000008902 -440 -680.000000000455 -1719.99999997897 -4399.99999995582 -4399.99999997067 -4400 -4400 -4799.99999997033 -4999.99999998414 -4999.9999999701 -4999.99999996999 -4800 -4600 -4400.00000001643 -4799.99999996953 -4599.99999998607 -4599.9999999693 -4400.00000001393 -2920.00000013332 -4600.00000001393 -4600.00000001722 -4600 -4799.99999996862 -4600 -4600 -4600 -4400.0000000179 -4599.99999996805 -4400 -4399.99999996783 -3640.00000004419 -3159.99999998613 -3200.00000000279 -3320.00000000278 -3240.00000000278 -3039.999999999 -2680.000000017 -2919.99999996693 -4000 -4400 -4600.00000001393 -2280.00000006406 -2519.9999999805 -1999.99999996666 319.999999976057 760.000000047589 1280 760.00000000557 800.000000046771 440.000000030491 679.999999979264 1479.99999985147 -359.999999991655 -360 -399.999999994429 -640.000000008481 -799.999999980332 -1959.99999996721 -1159.99999999721 -1080.00000000866 -1119.99999999565 -880.000000007162 -839.999999988415 -679.999999997215 -479.999999992769 -319.999999986073 -7.27595761449654e-09 -2199.99999987419 -160 -160.000000247894 -160 -800.000000170644 -1320.00000012449 -320.000000088187 -160 -160 -160 -80 -80.0000000055706 -79.9999999972147 -119.999999997215 -159.999999997215 -120.000000007628 -160 -160 -160 -3479.99999991087 -3480 -3480 -3480 -3480 -439.999999950217 -200.00000004535 839.999999971749 79.9999998814815 -440 -439.999999989677 -360 -360
-5200 -5199.99999999971 -5200 -5000.00000001432 -5199.99999998619 -5200 -5200 -5000.00000001478 -5000.00000001489 -5200 -5199.99999999869 -5200 -5200 -5000.00000001546 -5000.00000001557 -5200 -5200 -5000.00000001592 -5200 -5200 -5200 -5000.00000001637 -5000.00000001648 -5000.0000000166 -5000.00000001671 -5199.99999998619 -5200 -5200 -5199.99999999665 -5199.99999999653 -5200 -5200 -5199.99999998619 -5000.00000001774 -5200 -5199.99999999585 -5200 -5000.00000001819 -5200 -5200 -5000.00000001853 -5200 -5200 -5200 -5199.99999998619 -5200 -5200 -5199.99999999448 -5200 -5199.99999998619 -5199.99999998619 -5200 -5199.99999998619 -5200 -5199.99999999369 -5199.99999999358 -5199.99999999346 -5199.99999999335 -5200 -5199.99999998619 -5200 -5199.99999998619 -5000.00000002103 -5200 -5000.00000002126 -5000.00000002137 -5000.00000002149 -5000.00000000779 -5000.00000002171 -5199.99999998619 -5000.00000002194 -5000 -5000 -5000.00000002228 -5200 -5000.00000002251 -5200 -5200 -5199.99999996811 -4800.00000000915 -4800.00000002308 -3360.00000002063 -3400.00000000276 -2280.00000012646 -2280.00000011685 -3399.99999986758 -4999.99999998619 -5000 -4800.00000000364 -4999.99999998619 -5200 -5199.99999998948 -5200 -5000 -5000.00000001381 -5200 -159.999999997237 439.999999989996 -440 280.000000024761 1040.00000001014 1119.99999998981 520.000000000409 520.000000017792 959.999999992076 880 319.999999995111 -359.999999986187 -440 -519.99999998945 -440 -360 -360 -360 -360 -360.000000005298 -360 -439.999999989086 -360 -440 -600 -359.999999994429 -159.999999994429 -80.0000000055934 -80.0000000056161 -80 -80.000000005798 -120.000000000159 -599.999999994839 -680.000000006344 -919.999999994475 -2080 -2480.00000002899 -4200.00000001529 -4799.99999998619 -5000 -5199.99999997055 -5199.99999998425 -5000.00000001586 -5000 -4999.99999998619 -4800 -4600 -4400 -4600 -4400 -4200.00000001381 -4000 -4199.99999999682 -4399.99999998619 -4000.00000006207 -4600 -4599.99999996874 -4599.99999998619 -4400.00000001381 -4400.00000001779 -4400 -4200.00000001381 -4200 -4199.99999996794 -4000 -3279.99999999078 -2999.99999999819 -3040.00000000098 -2800.00000001305 -1640.00000012329 -3439.99999998133 -3320.00000003359 -4199.99999998619 -4599.99999998619 -4799.99999996669 -4400.00000001961 -3360.00000001145 -1119.99999996535 559.999999945669 439.999999993486 759.999999994475 679.999999997237 839.999999980787 1120.00000001373 479.999999957299 400.000000005525 759.999999990189 -360 -440.000000004218 1279.99999997899 -2519.9999999235 -919.999999987142 -840.000000019668 -1039.99999999843 -800.000000004354 -920.000000004377 -520.000000050136 -439.999999986733 -400.000000005525 -120.000000017224 -119.999999992747 -640.000000060697 0 120.000000023761 199.999999976149 8.28777046927029e-09 160.000000000898 119.999999976012 -79.9999999917122 -40 -120 -160 -120 -120 -120 -119.99999999518 -160 -1959.99999995906 -3480 -3480 -3480 -3519.99999999724 -3599.99999999447 -3600 -3600 -3600 -3599.99999999217 -3480 -3480 -2639.99999979789 -79.9999999810257 119.999999994816 40.0000000079694
-5200 -5200 -5200 -5200 -5200 -5200 -5199.9999999863 -5200 -5200 -5200 -5199.99999999869 -5199.9999999863 -5199.99999999846 -5199.9999999863 -5200 -5200 -5200 -5200 -5000.00000001592 -5200 -5200 -5000.00000001626 -5200 -5199.9999999863 -5200 -5000.00000001671 -5000.00000001682 -5200 -5200 -5000.00000001717 -5000.00000001728 -5200 -5199.99999999619 -5200 -5199.99999999596 -5200 -5200 -5199.9999999863 -5200 -5200 -5199.99999999528 -5199.99999999517 -5200 -5000.00000001876 -5000.00000001887 -5199.9999999863 -5000.0000000191 -5199.99999999448 -5199.99999999437 -5199.99999999426 -5000.00000001955 -5199.99999999403 -5000.00000001978 -5199.9999999938 -5000.00000000631 -5000.00000000642 -5200 -5199.99999999335 -5200 -5199.99999999312 -5000.00000002069 -5200 -5199.9999999863 -5000.00000002103 -5199.99999999255 -5200 -5000.00000002137 -5000 -5199.9999999784 -5000.00000002171 -5199.99999999187 -5199.9999999863 -5000 -5199.99999997783 -5200 -5000.0000000087 -5199.9999999863 -5000 -4400.00000005451 -4999.9999999863 -4800 -3639.9999999723 -3199.99999990471 -4799.9999999726 -4399.99999989697 -4999.99999999017 -5000 -3640.00000006336 -4800.00000001017 -4999.9999999863 -5200 -5200 -5200 -5200 -5000 -5200 -4999.99999998892 -159.99999999726 -360 -160.000000011425 1119.99999999538 1199.99999998986 1280.00000000706 1280 1679.9999999928 1279.99999998483 399.999999995407 -2.27487362280967e-08 -439.999999989541 -440.000000010505 -919.99999998397 -919.999999979172 -360 -1159.9999999426 -360 -360.000000005298 -439.999999989177 -360 -440 -520.00000000548 -839.999999988995 -439.999999983379 -360 -360 -360 -439.999999988768 -360.000000005798 -439.999999988677 -1000 -999.999999994066 -1120.00000001495 -3119.99999998356 -3079.99999998541 -4200.00000002899 -5000 -5000.0000000137 -5199.99999998437 -5199.99999998425 -5000 -4800.0000000137 -4799.99999998391 -4600 -4599.99999996999 -4399.9999999863 -4399.99999996976 -4399.99999996964 -3640.00000002437 -3800 -4000.0000000137 -4000.00000000341 -4399.99999995538 -4200 -4400 -4400 -4399.99999996862 -4200.0000000137 -4399.9999999863 -4199.9999999863 -4000 -3800 -3360.00000004488 -3439.99999999356 -3040.00000000646 -3319.99999999626 -2800 -3359.99999999362 -3800 -4000.0000000274 -4200.00000000557 -2760.00000000822 -3439.99999998904 -4400 -3319.99999999485 -159.999999992065 360.000000015962 319.9999999907 760.000000075238 920.000000008424 520.000000028683 1039.99999999179 959.999999990393 279.99999999452 359.999999989973 -360 -2920.00000001016 360.000000023942 -760.00000000822 -639.99999997857 -480.000000012528 -240.000000007071 -200.000000024022 -480.00000000274 -639.9999999912 -280 -239.999999995555 -199.999999983856 199.999999995509 -120.000000057707 -79.9999999899842 80.0000000218961 2.73985278877728e-09 39.9999999972601 39.9999999926331 -2.73985278877261e-09 -4.66116034690579e-09 -160.000000004684 -239.999999992553 -199.99999999178 -160 -160 -160 -3399.99999989249 -3480 -3480 -3559.99999999726 -3640.00000000217 -3680 -3599.99999999778 -3520.00000000274 -3520 -3480.00000000274 -3560.00000000274 -3599.99999999726 -3599.99999999217 -3559.99999999726 -3600 -3639.99999999726 -3640 -3640
-5199.99999999983 -5200 -5199.99999998641 -5199.99999998641 -5199.99999999937 -5200 -5200 -5199.99999999903 -5199.99999999892 -5200 -5200 -5200 -5000.00000001512 -5200 -5199.99999998641 -5200 -5199.99999998641 -5000.00000001569 -5199.99999998641 -5000.00000001592 -5200 -5000.00000001614 -5000.00000001626 -5200 -5000.00000001648 -5200 -5200 -5200 -5199.99999999665 -5200 -5199.99999999642 -5199.99999998641 -5199.99999998641 -5199.99999999608 -5200 -5200 -5199.99999999574 -5199.99999999562 -5199.99999999551 -5199.99999998641 -5199.99999998641 -5200 -5200 -5199.99999999494 -5199.99999999483 -5199.99999998641 -5199.99999998641 -5200 -5199.99999998641 -5000.00000001359 -5200 -5199.99999998044 -5199.99999998033 -5000.00000001978 -5000.00000001358 -5000 -5199.99999997988 -5199.99999998641 -5000.00000002035 -5200 -5000.00000002058 -5199.99999999289 -5200 -5199.99999997908 -5000.00000002103 -5200 -5199.99999999233 -5200 -5200 -4999.99999999198 -5000 -5200 -5199.99999997806 -5000.00000000847 -5000 -5000.00000001359 -4800 -4600.0000000586 -4200.00000005434 -3640.00000006521 -3280.00000000914 -3280.00000000356 -4799.99999998641 -5000 -4600.0000000233 -4800.00000000983 -5000.00000000995 -4999.99999998994 -5000 -5000 -5000.0000000104 -5200 -5200 -5200.00000001074 -5000 -5000.00000001359 -5200 -1999.99999991765 160.000000021726 -360.00000000457 1039.99999998493 1200.00000000466 1560.00000000706 1559.99999999457 1759.9999999928 1039.99999999274 399.999999984516 -359.999999986414 -360.000000004979 -440 -1120.00000000253 -3159.99999999185 -3120.00000000244 -3039.99999998936 -2479.99999996196 -2079.99999989431 -2759.99999998913 -2479.99999998918 -2200.00000000543 -1319.99999998641 -1119.99999997813 -439.999999994566 -360 -360 -360.000000005434 -360.000000005434 -360 -360 -999.999999994566 -999.999999994566 -1120 -3640.00000003574 -4199.99999997124 -3639.99999999321 -5000 -5200 -5000.00000002922 -5000.00000002933 -5000 -4800 -4600 -4200 -4000 -3800 -3800 -1680.00000012526 -3640 -3999.99999996953 -4199.99999998641 -3640.00000005525 -4199.99999995197 -4399.99999998266 -4200.00000001359 -4200 -4399.99999998641 -2599.99999996487 -3639.99999998987 -3360.00000004425 -3639.99999996736 -3439.9999999854 -3079.9999999928 -1920.00000003923 -2999.99999996754 -2960 -2959.99999998495 -3239.99999997506 -2120.0000000549 -3999.99999998641 -3640.00000001087 -3440.00000007873 -4399.99999998641 -4400 -1719.99999992154 -80.0000000027171 120 120.000000021612 320.000000036721 760.000000000034 560 760.000000016416 640.000000037039 360.000000013733 -839.999999955367 -3080.0000000777 -4079.99999999428 -3560.00000000424 -4039.99999999302 -280 -80.0000000113346 359.999999990234 -119.999999992929 -240 -360.000000002717 -199.999999995578 -39.9999999911097 120.000000076318 120.000000005434 39.9999999449187 -5000 -119.999999992724 5.43423084309355e-09 200.000000001887 120.00000000191 319.999999977899 319.999999980184 -39.9999999918486 -120.000000007424 -160.000000002717 -2880.0000000618 -3400.00000001564 -3520.00000001023 -3640 -3519.99999999728 -3480 -3480 -3480 -3520 -3639.99999999728 -3640 -3520.00000000815 -3120.00000002989 -1600.00000011023 -360.00000006014 -200.000000000341 -160 -80.0000000054342 -80 -119.999999992099 -80.0000000104137
-5199.99999999983 -5199.99999998653 -5000.00000001387 -5000.00000001398 -5200 -5200 -5200 -5000.00000001444 -5200 -5199.99999998533 -5200 -5200 -5200 -5200 -5200 -5000.00000001535 -5200 -5200 -5199.99999999778 -5200 -5199.99999998408 -5199.99999999744 -5200 -5200 -5200 -5200 -5199.99999998653 -5000.00000001671 -5200 -5200 -5200 -5200 -5200 -5000.00000001739 -5000.00000001751 -5200 -5199.99999998226 -5200 -5199.99999998204 -5200 -5200 -5200 -5199.99999998158 -5200 -5200 -5200 -5199.99999998113 -5199.99999998653 -5000.0000000191 -5199.99999999426 -5000 -5000 -5000 -5000 -5000 -5000 -5000.00000001347 -5199.99999997988 -5199.99999999324 -5199.99999997965 -5000.00000002046 -5200 -5199.99999998653 -5000.0000000208 -5200 -5199.99999999244 -5199.99999999233 -5200 -5000.00000002137 -5200 -5199.99999999187 -5199.99999998653 -5000.00000001347 -5000 -4800.00000000858 -4600.00000002217 -4600.00000002228 -4999.99999999108 -4800.00000002251 -4799.99999992349 -2280.00000010914 -4999.99999999062 -5000 -5000 -4999.99999998653 -4999.99999999017 -5000 -5000 -5000 -5000 -5199.99999997612 -5200 -5200 -5200 -5200 -5000 -5200 -5200 -159.999999992781 -360 360.000000002308 960.000000003058 1679.99999999495 1799.99999997908 1479.99999999399 1279.99999999516 439.999999995362 -360 -360.000000005389 -1719.99999995958 -2880.00000001299 -3439.99999999461 -3640 -3360 -3120.00000001057 -3159.99999999731 -3000.00000000002 -3279.99999992725 -2759.99999998918 -2680.00000000548 -3239.999999931 -3319.99999993776 -360 -360 -360 -360 -360 -439.999999994611 -1080 -1120 -3280.00000004156 -4800 -4400 -4000 -4799.99999998653 -5200 -5199.9999999709 -5000 -4800 -4799.99999997055 -4400 -4199.9999999838 -3639.99999997575 -3799.99999998922 -3639.99999998346 -3640.00000001078 -3640.00000001078 -3800.00000001688 -4399.99999993906 -3399.99999995719 -3799.99999994789 -4000.00000003081 -4000 -4000 -3800 -2960.0000001063 -3280.00000001709 -3080.00000004776 -2879.99999999275 -2920 -3119.99999996693 -3120.00000003295 -3640 -3999.99999996783 -4200 -4199.99999996214 -3639.99999998096 -1799.9999999584 -1320.00000001119 -4399.99999998653 -4600 -4599.99999999386 -1599.99999996863 5.38875610693587e-09 80.0000000039904 639.999999966462 480 679.999999995941 799.999999997306 680.000000008083 -360 -679.999999997522 -4119.9999999973 -3920.00000000658 -3480 -3480 -3480.00000000426 -3439.99999999302 -319.999999971988 -40 39.9999999929514 -199.999999995623 -240.0000000044 -119.999999992883 -480.000000010641 -120.000000004468 -599.999999953297 39.9999999738634 -5000 -5000 -1639.99999992671 -1319.99999995576 -880.000000025068 200.000000010516 -1.20166987468615e-08 -120.000000002694 -159.999999994611 -119.999999997306 1.01408659244486e-08 40 -119.999999997306 -120.000000012903 -960.00000005225 -2600.00000010576 -3600.00000000269 -400.000000009038 -160.000000013017 -160.000000002694 -160 -160 -160 -160 -160 -160 -160 -160 -160 -160 -200.000000005207
-5199.99999999983 -5199.99999998664 -5199.9999999996 -5200 -5199.99999998664 -5000.0000000141 -5200 -5199.99999998664 -5000.00000001444 -5200 -5000.00000001466 -5200 -5200 -5200 -5200 -5199.99999998664 -5199.99999999801 -5200 -5199.99999999778 -5200 -5200 -5200 -5200 -5000.00000001614 -5000.00000001626 -5200 -5199.99999998664 -5000.0000000166 -5200 -5200 -5199.99999999642 -5199.99999998664 -5199.99999998664 -4600 -1639.99999999502 -3799.99999998184 -5199.99999999574 -5199.99999999562 -5199.99999999551 -5199.99999998664 -5200 -5199.99999998664 -5199.99999999505 -5199.99999999494 -5199.99999999483 -5200 -5199.9999999946 -5199.99999999448 -5000 -5000.00000000574 -5000 -4999.99999998067 -4999.99999998056 -4800.00000001955 -5000 -5000 -5000.00000000654 -5000 -5000.00000000676 -5000.00000000688 -5000.00000002035 -5000.0000000071 -5199.99999997942 -5200 -5000.0000000208 -5199.99999999244 -5000.00000002103 -5199.99999998664 -5200 -5200 -5199.99999998664 -5200 -5200 -5000 -5000.00000000858 -5000.0000000087 -5000 -4600.00000005349 -5200 -5000 -4999.99999996811 -5000 -4800 -4999.99999997704 -4999.99999997692 -5199.99999997681 -4599.99999988927 -4999.99999998994 -4999.99999998664 -5000 -5199.99999997624 -5200 -5200 -5200 -5200 -5200 -5000.00000001336 -5200 -1919.99999992989 -439.999999972158 1119.99999998664 1040.00000001467 1400.00000000534 1400.00000002019 1679.99999998479 1399.99999999198 919.999999981526 -360.000000004934 -439.999999994657 -2080.00000000251 -3039.99999999973 -3400.00000000267 -3400.00000000258 -3360.00000000528 -3400 -3360 -3280.00000000801 -3319.99999999194 -3439.99999998922 -2959.99999999466 -2919.99999999733 -2800.00000001091 -519.999999989041 -360 -439.999999994293 -360.000000005752 -360 -759.999999982469 -680.00000002301 -1120 -4799.99999999841 -4799.99999997158 -4400.00000002853 -4399.99999998471 -4399.99999998664 -5000 -5199.99999998664 -5000 -4799.99999998414 -4600 -4400 -4000.00000002956 -3800 -3440.00000005361 -3440.00000004059 -3640 -3800 -3800.0000000062 -4199.99999999636 -4199.99999997328 -4000.00000001722 -4000 -3799.99999998604 -3640 -3440.00000000275 -2760.00000000448 -2679.99999998403 -2960.00000001454 -2480.00000008226 -3640 -3800 -3999.99999998153 -3999.99999998664 -4199.99999998664 -4000 -3640 -2480.00000001717 -3199.99999998896 -4400 -4199.99999992383 -2000.00000000196 -4599.99999994657 -2199.99999987696 -839.999999954582 -359.999999986642 -79.9999999946567 120.000000004036 639.999999998715 -359.999999965269 -360.000000176476 -4200.00000000146 -3920.00000000119 -3520 -3480 -3480 -3480 -3480 -3480 -3480 -239.999999985994 -40 -40.0000000017053 -7.07132130599106e-09 -1.41881173473631e-08 -280.000000020452 -1399.99999995983 -360.000000052807 119.999999997328 -5000 -5000 -5000 -5000 -999.99999994767 200 40.0000000026716 160.000000005343 120 199.999999991985 -120 -120 -120 -120 -160 -159.999999997328 -160 -160 -160 -160 -160 -160 -160 -160 -160 -160 -160 -1560.00000004051 -3519.99999999733 -3520.00000000518 -3640
-5199.99999998676 -5200 -5200 -5200 -5000.00000001387 -5200 -5199.9999999859 -5199.99999998675 -5199.99999999892 -5200 -5199.99999999869 -5200 -5000.00000001478 -5000.00000001489 -5000.00000001501 -5199.99999998675 -5000.00000001523 -5200 -5200 -5200 -5200 -5200 -5199.99999999733 -5199.99999998675 -5200 -5000.00000001626 -5199.99999999687 -5199.99999999676 -5200 -5199.99999998329 -5000.00000001682 -4800.00000000955 -4600.00000000381 -4799.99999998283 -2759.99999989564 -4000.00000001739 -3639.99999999574 -5200 -5199.99999998676 -5199.99999998675 -5000.00000001796 -5200 -5200 -5200 -5199.99999999483 -5199.99999999471 -5199.9999999946 -5000.00000001324 -5199.99999998113 -5000 -4999.99999999414 -4800.00000001324 -4799.99999999392 -4600.00000002564 -4800 -4999.99999999358 -4999.99999998676 -5000.00000000665 -5199.99999997999 -5000.00000000688 -5200 -5000.00000001324 -5199.99999999278 -5200 -5200 -5199.99999998675 -5200 -5199.99999998675 -5000.00000002115 -5199.99999998675 -5200 -5199.99999997851 -5200 -5199.99999999153 -5200 -5000.0000000087 -5200 -5199.99999999107 -5200 -5199.99999999085 -4999.99999997749 -5000 -5000 -4800.00000002285 -4800.00000000972 -4999.99999998676 -4800.00000002319 -5000 -4800.00000002342 -4200.0000000706 -5199.9999999896 -5200 -5200 -5199.99999998675 -5199.99999998914 -5199.99999998903 -5199.99999997567 -5200 -5200 -159.999999990132 1120.00000000598 1480 1280 1400 1560 1680.0000000053 1040.0000000053 -160.000000012335 -360 -2400 -2960.00000001302 -3280.00000001041 -3360 -3399.9999999974 -3360.0000000053 -1720.00000001854 -360.000000015893 -359.999999994611 -840.000000034913 -3360 -3399.99999999724 -3319.99999990836 -1159.99999999719 -360.000000005662 -360 -360 -599.999999995202 -520.000000022283 -839.99999996644 -1120.0000000267 -4799.9999999718 -4400 -4000.00000001518 -4600 -4600 -5000.00000002876 -5000.00000001563 -5000 -4800 -4599.99999998676 -4400 -4199.9999999838 -4000 -3640.00000002384 -3800.00000002979 -3800.00000000606 -4399.99999995674 -4000.00000000364 -4000 -3640.00000004139 -3999.99999995575 -3800 -3400.00000003683 -3000.0000000053 -2079.9999999965 -2759.99999998411 -3160.00000000716 -3800 -3800 -4000 -3999.9999999684 -4000 -4000 -3440.00000003195 -3640 -3640 -3399.99999996407 -2999.99999998028 -2600.00000007057 -4199.99999999386 -2799.99999993172 -1600.0000001707 -3440.00000000535 -1720.00000001189 -1119.99999999601 -360 -360 -360 -3160.00000000467 -4120 -3600.0000000106 -3480 -3480 -3480 -3480 -3480 -3480 -3480 -3480 -3640 -2319.99999984462 -40 479.999999999102 39.9999999920533 439.999999988461 -1560.00000001771 0 -79.9999999909733 -5000 -5000 -5000 -5000 -1600.0000000053 -1119.99999999005 -439.999999928912 159.999999994088 200 39.9999999926217 -160 -160 -80.0000000047976 -159.999999992531 119.999999994702 119.999999997351 -120 -120.000000002649 -160 -160 199.999999994702 79.9999999897 -40.0000000129717 -160 -1759.9999999527 -3520.00000000244 -3560.00000000247 -3639.99999999735 -3680 -3639.99999999746 -3560.00000000795
-5200 -5199.99999999971 -5200 -5200 -5200 -5199.99999999926 -5200 -5200 -5199.99999998687 -5000.00000001432 -5199.99999999869 -5200 -5199.99999999846 -5000.00000001478 -5199.99999998687 -5199.99999999812 -5200 -5199.99999998687 -5000.00000001535 -5199.99999998687 -5200 -5000.00000001569 -5199.99999999733 -5000.00000001592 -5199.9999999971 -4600.0000000424 -4400.00000000313 -4800 -4999.99999998687 -4800.0000000166 -5199.99999999642 -4800 -4799.99999998687 -4600 -4599.99999998687 -4599.99999998272 -4000 -3799.99999999387 -3440.00000001133 -5200 -5200 -5000.00000001796 -5199.99999999505 -5199.99999998687 -5199.99999998687 -5000.00000001842 -3280.00000012264 -3639.99999997899 -3639.99999995798 -3799.9999999716 -3639.99999998162 -3320.00000000167 -3080.00000004285 -4599.9999999938 -4799.99999998687 -4800 -5000 -5000 -5000.00000001313 -5199.99999997999 -5000.00000001313 -5000 -5000.00000000722 -5000.00000000733 -5000.00000002058 -5200 -5000.0000000208 -5199.99999998687 -5200 -5199.99999999198 -5200 -5200 -5200 -5000.0000000216 -5200 -5200 -5200 -5200 -5199.99999997783 -5000 -5199.99999994594 -5199.99999999062 -5000 -5000 -5000 -4599.99999998357 -5000 -5000 -5000 -5000 -5000.00000002353 -5199.99999998687 -5200 -5199.99999994748 -5199.99999997601 -4800.00000001097 -5000 -5000 -5000.00000001131 -2199.9999999542 -439.999999965462 960.000000000591 1280.0000000354 1679.99999998499 920.000000007878 1560 1199.99999996958 -80.000000004934 -120.000000012585 -2079.9999999895 -2880.00000000516 -2519.9999999689 -1920.00000002354 -160.000000013131 -160 -160 -160 -160 -160.000000032151 -2520.00000005217 -5200 -5200 -3359.99999991786 -360 -360 -360 -999.999999994202 -160 -680.000000012415 -1440.00000006702 -4799.99999997192 -4400 -4599.99999998687 -4600.00000002842 -5000 -5199.99999998448 -5000.00000001563 -4800 -4600 -4399.99999998687 -4200.00000004235 -4200 -4000 -3999.99999998357 -4399.99999998687 -3800.00000006662 -4200 -3800.00000002326 -3640.0000000105 -3640 -3439.99999999311 -3000.00000001576 -2240.00000002274 -2279.99999995443 -2120.00000001344 -3440.00000000729 -3640.00000002483 -3999.99999997636 -4200 -4000.00000003138 -4000 -3800 -3799.99999997463 -3199.99999999737 -2520.00000000717 -2400.00000003121 -3040.00000002049 -3640 -3800 -4199.99999998062 -4200 -4200 -3439.99999999605 -3440.00000012819 -4239.99999999202 -4120.00000000664 -4159.99999999737 -3839.99999999976 -3720.00000000117 -3559.99999999327 -3560 -3520.00000000263 -3480 -3480 -3480 -3480 -3480 -3480 -3480 -3640 -3640 -159.999999964984 -40 -79.9999999955776 -1200.0000000992 -2.93335693552383e-19 -79.9999999891543 -640.000000019531 0 -120.000000039245 -5000 -5000 -5000 -5000 -1919.99999997755 -2559.99999999943 -800.00000022261 -1079.99999986131 1.90084392658073e-08 -1760.00000031323 -4999.99999978728 -5000 -5000 -5000 -5000 -5000 -4999.9999997794 -719.999999969077 80 680.000000025511 520.000000002399 479.999999999795 239.999999994566 -160.000000018383 -160.000000010368 -160.000000002626 -160 -160 -160
-5199.99999999983 -5200 -5199.99999998698 -5199.99999999949 -5200 -5200 -5200 -5199.99999998698 -5200 -5199.9999999988 -5199.99999998698 -5199.99999998556 -5200 -5200 -5200 -5000.00000001489 -5000.00000001501 -5199.99999998698 -5200 -4400 -4600 -4600 -4799.99999998698 -4600.00000001302 -4800 -4999.99999999699 -4799.99999998386 -4800.00000001626 -5000 -5000.00000001302 -4800.00000000358 -4400 -4000.00000002984 -4600 -4200 -4600 -3640.00000002343 -4000.00000001739 -4199.999999978 -3999.99999998698 -3800 -3800 -3640.00000001041 -3799.99999998988 -3799.99999998959 -3800.00000000529 -4000 -3800.00000001853 -3800 -4199.99999996822 -3800 -3400.00000001562 -3319.99999999358 -4000.00000001921 -4200.00000000631 -4600.00000001944 -4800.00000001302 -4999.99999999335 -5000 -5199.9999999801 -5000 -5000.00000001302 -5000.00000002024 -5000.00000000733 -5000.00000002046 -5199.99999999244 -5199.99999997931 -5200 -5200 -5199.99999997897 -5000 -5000 -5200 -5199.99999998698 -5200 -5199.99999997828 -5200 -5000.00000001302 -5199.99999999096 -5000 -5000 -4799.99999991957 -5000 -4800.00000002262 -4999.99999999028 -5000.00000001302 -5199.99999998698 -5200 -5000.00000002319 -5199.99999998698 -5000.0000000104 -5199.99999997647 -5199.99999997635 -2079.99999996115 -3320.00000003558 -2280.00000006769 -1600.00000015964 -4999.9999999776 -3440.00000006078 -1999.9999999595 1559.99999999018 759.999999994793 439.999999990337 120.000000002831 680.000000017201 1280.00000002512 1679.99999999219 959.999999997533 -120.000000005093 -1600.0000000201 -1919.9999999667 -1599.9999999899 -1080.00000000518 -160.000000013017 -120.000000000023 -119.999999997351 -119.999999997328 -120.000000002603 -159.999999997397 -1120 -5199.99999998698 -5199.99999998698 -5200 -5199.99999998698 -1119.99999999715 -279.999999996578 -680.000000005207 -120.000000005525 -840.000000030002 -600.000000017076 -3240.00000006462 -4600 -4999.99999998698 -5000.00000001529 -5000.00000002842 -5199.99999997146 -4800.00000001302 -4800.00000001575 -4799.99999997112 -4000.00000005798 -4400.00000001609 -4200.00000002922 -4000.00000001631 -4200.00000001643 -4199.99999998698 -4399.99999999636 -3800.00000001302 -4000 -3640 -3799.9999999759 -3999.99999988364 -3199.99999999307 -3039.99999997585 -3279.99999998868 -3400.00000002121 -3799.99999998577 -3800.00000001791 -4200 -4200 -4200 -4000 -4000 -4000 -4000 -3999.99999998698 -3400.0000000097 -3999.99999998698 -4000 -4199.99999996771 -4000 -4200 -4200 -3999.99999999329 -5000.00000001984 -4999.99999976123 -3639.99999999599 -3560 -400.000000208274 -3480.00000002934 -3600.0000000026 -3600.00000000413 -3599.99999999325 -3560 -3480.00000000839 -3480.00000000422 -3519.99999999316 -3480 -3480 -3480 -3480 -3640 -3640 -39.9999999903935 -40 -1719.99999980625 -2880.00000001154 -1560.00000003215 159.99999998056 -79.9999999857209 79.9999999765578 -400.000000014995 -5000 -5000 -5000 -5000 -5000 -4999.99999971623 -5000 -5000 -5000 -5000 -5000 -5000 -5000 -5000 -5000 -5000 -5000 -4999.99999988024 -919.999999923739 360.000000030513 720.000000020191 800.00000000274 840.000000033503 279.999999989677 -160 -160 -160 -160
-5200 -5199.9999999871 -5200 -5000.00000001342 -5200 -5200 -5199.9999999871 -5199.99999999903 -5199.9999999871 -5000.00000000119 -5000 -5200 -5200 -5200 -4600 -4600 -4800 -4799.9999999892 -4800 -4799.99999999767 -4800 -4800.00000000256 -5000 -4800.00000001569 -5000 -5000.0000000129 -5000 -4800.00000000324 -4799.99999999665 -4400 -4199.99999999642 -4399.9999999963 -4000.00000000381 -4200 -4199.99999997902 -4600 -3280.0000000456 -4200 -4600 -4199.9999999917 -4200.00000000472 -4399.9999999871 -4200.00000003075 -4399.99999995623 -3640.00000002998 -4600 -3640.00000008786 -4399.99999992516 -3799.99999998518 -3800.00000000574 -3999.9999999871 -3639.99999999403 -3400 -3640.00000002818 -3800.00000003843 -4400.00000000642 -4800 -4999.99999998045 -5000 -5000 -5000 -5199.99999997999 -5000.00000000722 -5199.99999997976 -5000 -5200 -5200 -5000.00000002069 -5000.0000000129 -5000.0000000129 -5199.99999999187 -5199.99999997885 -5199.99999997874 -5000.00000002137 -5199.99999997851 -5000.0000000216 -5199.99999999119 -5199.99999999107 -5000.00000000904 -5199.99999997794 -5000.00000000927 -4999.99999999062 -4800.0000000129 -4999.99999997749 -4999.99999999028 -5000 -5199.99999997715 -4600.00000005599 -5199.99999997692 -4799.99999997942 -5199.9999999896 -4800.00000002342 -5000 -4999.99999998926 -3280.00000000733 -2520.00000001924 -3799.99999997419 -3639.99999999464 -3440.00000003613 -2000.00000000626 1960.00000000434 1399.99999998527 359.99999999203 800.000000009913 879.999999979718 560.000000004684 1040 1200.00000000023 -159.999999997419 -520.000000025261 -1120 -919.999999984607 -159.999999997419 -159.999999997419 -119.999999997374 -80.0000000025807 -80 -80.0000000026944 -600.000000011141 -1720.00000000111 -5200 -5199.9999999871 -5199.99999998596 -5200 -4999.99999999864 -159.999999997124 -679.999999994202 -360 -840.000000005889 -680.000000005161 -1200.00000000897 -4800.0000000129 -5000.00000002808 -5200 -5199.9999999871 -5199.99999998448 -5000 -4800 -4200.00000000995 -4200 -4599.9999999323 -4200.00000004201 -4600.00000001631 -4600 -4399.9999999871 -4000.00000005912 -4200 -4000 -3640 -3799.99999997526 -3440.00000001206 -3799.99999998968 -3799.99999993322 -3800 -3999.99999996942 -4000.0000000307 -4199.99999998209 -4200 -4199.99999998187 -4200 -4000 -4000 -4000.00000003149 -4000 -4000 -4000 -4000.00000001904 -4000 -3640.00000001032 -3200.0000000142 -3439.99999999484 -3640.00000000361 -1600.00000001519 -1079.99999999465 -920.000000020884 -759.999999997135 -520.000000002251 -440 -360.000000005161 -440.000000010323 -760.000000002069 -759.999999953547 439.999999965462 -560.000000089051 -3040.00000003682 -3520.00000000682 -3520 -3520 -3480 -3639.99999997235 -3640 -3640 -3640 -40 -80.0000000044451 -159.999999984709 -5000 39.9999999929059 239.99999998256 279.99999999286 -639.999999977933 -1200.00000004402 -5000 -5000 -5000 -5000 -5000 -5000 -5000 -5000 -5000 -5000 -5000 -5000 -5000 -5000 -5000 -5000 -5000 -5000 -1519.99999988075 280.000000005048 400.000000010232 479.999999994907 719.999999997465 359.999999984561 -40.0000000103228 -160 -200
-5200 -5000.00000001307 -5199.99999998721 -5199.99999999949 -5200 -5000.00000001353 -5200 -5000.00000001376 -5200 -5000 -5199.99999998721 -5200 -5199.99999999846 -4800 -4799.99999999824 -5000.00000001279 -5000.00000000199 -4999.9999999979 -4800 -4800.00000001279 -5000.00000001523 -5000 -4999.99999999733 -4800.00000001557 -5000 -5000.00000000301 -5199.99999998408 -5199.99999998397 -4800 -4399.99999998027 -4799.99999997442 -4800.00000001279 -4799.99999999619 -4799.99999998721 -4800 -4599.99999998306 -4199.9999999693 -4399.99999999562 -4400 -4799.9999999954 -4000.00000004445 -4400.00000003041 -4800 -4400.0000000357 -4799.99999999483 -4600.00000000529 -4600 -4200.00000002382 -4000 -3800.00000000574 -3999.99999998721 -3640.00000000477 -3319.99999999123 -3400 -3640 -4199.99999998079 -4599.99999998721 -4800 -4800.00000001279 -4999.99999998721 -5000 -5000.00000001279 -5000 -5000 -5000.00000001279 -5000 -5000.00000002046 -5000.00000002058 -5199.99999998721 -5200 -5199.99999998721 -5000.00000000824 -5000.00000002115 -5000.00000000847 -4599.99999994884 -5199.99999998721 -5200 -5000.00000000892 -5000.00000001279 -5000 -4999.99999997794 -4800.00000000938 -5000 -5000 -5000 -5000 -5000 -5000 -5000 -5000 -5000.0000000104 -5000 -2080.00000011039 -2280.00000001535 -3239.99999995178 -3639.99999999487 -3639.99999997954 -3640.00000001023 -2080.00000005834 -3639.99999997067 -679.999999913416 1559.99999997743 680.000000007674 200.000000002558 800.000000012312 1120.00000001992 1879.99999999721 1280.0000000074 -1.00953911895209e-08 5.11590769731234e-09 -120.000000002558 -80.0000000051159 -80.0000000153704 -80.0000000025579 1.04364517023411e-08 80 -80.0000000025579 -440.000000005389 -2079.99999999919 -4600 -5200 -5000.00000002672 -5199.99999998596 -5200 -5199.99999998573 -1479.99999995109 -80.000000005457 -280.000000016075 -279.999999996282 -440.000000006753 -1119.99999999233 -2280.00000021851 -5000.00000002797 -5000 -5000.0000000154 -5000 -5000 -4799.99999998721 -4600 -4599.99999998721 -4400.00000002888 -4400 -4600 -4600.00000001279 -4599.99999998721 -4200 -4199.99999998323 -3999.99999998312 -3999.99999994221 -3799.9999999991 -3999.99999995975 -3800.00000001734 -3999.99999997698 -3800.00000004314 -3640.00000005484 -4000 -4200.0000000179 -4200 -4199.99999998187 -4200 -4199.99999998164 -4199.99999996874 -4000 -4000 -3799.99999998495 -2240.00000001811 -3080.00000000006 -2519.99999999233 -2759.99999998325 -2520.00000000124 -1920.0000000759 -1000.00000000665 -359.99999998721 -360 -360 -439.999999994884 -360 -360 -439.999999986721 -360 -360 -439.999999986585 -439.99999998654 -360 -280.000000013551 -520.000000005116 -680.000000005116 -680 -680.000000005116 -759.999999991337 -1120 -1000.00000066251 -160 -40.0000000209411 -39.9999999955548 -160 -5000 -2359.9999998989 119.999999981276 -560 -279.999999997442 -280.000000016882 -5000 -5000 -5000 -5000 -5000 -5000 -5000 -5000 -5000 -5000 -5000 -5000 -5000 -5000 -5000 -5000 -5000 -5000 -5000 -2439.99999989352 200.000000010186 360.000000007651 280 520.000000005116 559.999999974284 119.999999992258 -200
-5000.00000001285 -5000.00000001296 -5200 -5000.00000001319 -5200 -5000.00000001342 -5000.00000001353 -5199.99999998732 -5000.00000001376 -5200 -5200 -5200 -5199.99999999846 -4999.99999998732 -4800.00000000176 -5200 -5200 -4800.0000000021 -5200 -5200 -5199.99999999756 -5199.99999998732 -5199.99999998732 -5000 -5000 -5000 -5000 -4999.99999998732 -4799.99999998397 -4600 -4800 -5000 -4999.99999998732 -4999.99999998732 -4600.00000000864 -5000 -4000 -4200 -4799.99999999551 -4800 -4999.99999998732 -4800.00000001268 -4999.99999998238 -4800 -4799.99999998215 -4799.99999998732 -4600 -4599.99999998181 -4200.00000001268 -4000 -3800 -3640.00000000477 -3359.99999998641 -3280.0000000013 -3320 -3799.99999998472 -4200 -4600 -4800 -4800 -4800 -4999.99999998022 -5000 -4800.00000002001 -5000 -5000.00000002024 -5000 -5000 -5199.9999999921 -5200 -5199.99999998732 -5000.00000001268 -5199.99999997897 -3280.00000008044 -5000.00000000409 -5199.9999999913 -5000.00000002149 -5000 -5000 -4999.99999997817 -4800.00000000927 -4800.00000001268 -4800.00000000949 -4800.00000000961 -4999.9999999776 -4999.99999999017 -4800.00000002262 -5000 -5000.00000001017 -4800.00000002296 -5000.0000000104 -2520.00000002265 -2280.00000001521 -4599.99999993915 -1480.00000009449 -3439.9999999902 -3359.99999994268 -3439.99999999552 -1720.00000010859 -5000 -4800.00000001154 1280.00000000761 1200.00000002245 439.999999993031 440.000000006924 520.000000010027 640.00000001005 1560 1039.99999997999 240.000000010004 239.999999984789 239.999999982231 -119.999999997465 -1.28125066104018e-08 120.000000002717 5.29780663765972e-09 -159.99999999493 -1720.00000000698 -4400.00000001359 -5200 -5200 -5200 -5199.99999998596 -5199.99999998732 -5000.00000002694 -5200 -2399.99999990437 -160 -600.0000000211 -1440 -2199.99999999239 -1119.99999999746 -4399.99999991197 -4600.00000002797 -5000 -4999.99999998732 -4400 -5000 -4800 -4800 -4799.99999998391 -4600 -4600 -4400.00000001643 -4400.00000001268 -4000 -3640.00000007444 -3640 -3160.00000008481 -3640.00000006629 -4000.00000002535 -4200.00000001734 -4200 -4000.00000003024 -3639.99999978672 -4200.00000001779 -4200.00000001268 -4200 -4200 -4200 -4200 -4000 -3799.99999998513 -1800.00000011379 -3240.00000001889 -3320 -3199.99999999619 -2759.99999996687 -1000.00000007271 -2120 -440.000000012483 -280.000000017985 -360 239.999999974648 879.999999938075 2439.9999999493 2120.00000000357 1760.00000000761 1560 1479.99999998732 399.999999962267 -360 -360.00000000507 -360.00000000839 -360 -359.999999978797 -360 -360.000000008572 -360.00000000507 -519.999999986267 -680 -599.99999999493 -599.99999999493 -2719.99999997842 -2960.00000000445 -160 -5000 -5000 -2959.99999995864 -1159.99999998479 -1239.99999997611 -999.999999937813 -1559.99999989301 -1240.00000002451 -2080.00000006133 -5000 -5000 -5000 -5000 -5000 -5000 -5000 -5000 -5000 -5000 -5000 -5000 -5000 -5000 -5000 -5000 -5000 -3159.99999979465 120.000000002535 360.000000007651 240.000000002535 320.000000000091 919.999999984561 279.999999984516
-5199.99999998744 -5200 -5200 -5000.00000001307 -5199.99999999937 -5199.99999999926 -5000.00000001341 -5000.00000001353 -5199.99999998744 -5199.9999999988 -5200 -5200 -4200.00000000307 -5000.00000000165 -5000.00000001432 -5200 -5400 -5399.9999999979 -5399.99999998744 -5200 -5399.99999998744 -5200.00000000256 -5200.00000001523 -5200 -5000 -5000 -4800 -4399.99999999352 -4200.00000000335 -4200.00000002859 -4600.00000001256 -4400.00000004508 -5000 -4999.99999999136 -5200 -5200 -4399.99999997891 -2920.00000005398 -4400 -4800 -4600.00000001728 -4600.00000000966 -4999.99999994975 -4600.00000000506 -4599.99999998744 -4800 -4600.00000001796 -4400 -4200 -3800.00000001256 -3640.00000001005 -3640 -3640 -3239.99999994094 -3239.99999992714 -3360.00000000631 -3999.99999998823 -4200 -4200.00000001256 -4599.99999999312 -4599.99999999301 -4600 -4600.00000001256 -4799.99999999267 -4800.00000001256 -4999.99999997988 -4800.00000002024 -5000.00000001256 -5199.99999997954 -5000.00000002058 -5200 -5000 -5199.99999997908 -4800.00000000847 -4800.00000001717 -5000.00000002126 -5200 -5000 -4800.00000000904 -4800 -4200.00000003769 -4800 -4800 -4800 -4999.99999997772 -4999.9999999776 -4999.99999997749 -5000 -5200 -5199.99999997715 -4999.99999996879 -3359.99999997633 -4799.99999996811 -4400.0000000233 -4799.9999999423 -3319.9999999673 -4199.99999993364 -3439.99999996833 -3280.00000010858 -5000 -5000 -759.999999939916 279.99999999294 1120.00000000027 880 559.999999994975 239.999999992735 -359.999999992372 40.0000000100499 -120 759.999999979786 1800.00000002791 959.999999994975 79.9999999974875 119.999999994748 -160.000000007947 -1160.00000000817 -3440.00000002425 -5199.99999998098 -5200 -5199.99999998744 -5200 -5199.99999998596 -5200 -5200 -5200 -5000.00000002706 -5199.99999997283 -1119.99999998449 -519.999999994975 -840.000000025955 -1120.0000000201 -1719.99999997425 -3000.00000004937 -5000.00000001256 -4999.99999998448 -4799.99999998437 -4600.00000002831 -4800 -4800 -4799.99999998391 -4600 -4599.99999997487 -4399.99999998357 -4199.99999998346 -3800.00000002922 -3800 -3400.00000007051 -3800.00000000695 -4199.99999998744 -4200 -4200.00000001256 -4599.99999996999 -4200.00000003013 -4400 -4400 -4400 -4400 -4200.00000001813 -4000.00000003081 -4000 -3799.99999998522 -3039.99999997398 -3159.99999995734 -1999.9999999209 -2920.00000002643 -1080.00000000439 -1159.99999999881 -1319.99999999598 -1439.99999999088 -599.999999958231 319.999999999204 1199.99999998995 1479.99999999709 1759.99999999246 1039.99999999801 1040.00000000053 680.000000005025 1280 1279.99999997035 799.999999997488 1120.00000000502 679.999999946567 -360 -439.99999998654 -360.000000005025 -360 -360 -80.0000000025125 -159.999999997487 -440 -759.999999994975 -3439.99999999497 -3440.00000000382 -3920.00000001198 -5000 -5000 -5000 -5000 -1159.99999995488 1879.99999988177 239.9999999686 -2199.9999999647 -1440.00000004009 -5000 -5000 -5000 -5000 -5000 -5000 -5000 -5000 -5000 -5000 -5000 -5000 -5000 -5000 -5000 -5000 -5000 -5000 -5000 -5000 7.62838681079953e-09 280.000000015302 240.000000002512 319.999999989791 440.000000012926
-5200 -5200 -5199.9999999996 -5199.99999999949 -5200 -5199.99999999926 -5200 -5000.00000001342 -5199.99999998755 -5200 -5200 -5200 -5200 -5399.9999999859 -5399.99999998579 -5400 -5400.00000001444 -5400 -5400 -5399.99999999767 -5200 -5200.00000000256 -5200.00000001512 -5000.00000001523 -4999.9999999942 -4600.00000000944 -4200.00000001245 -3400.00000001883 -3160.00000000689 -4199.99999998408 -5000 -4599.99999996129 -4800 -5000.00000000392 -5000.00000001648 -5200 -4999.99999998329 -4599.99999998317 -4000 -4400.00000001705 -4600 -4600 -4399.9999999826 -3999.99999998755 -3640.00000000414 -4600.00000000529 -4600 -4200.00000001796 -4000.00000001245 -3640 -3160.00000005463 -3639.99999994495 -3640 -3239.99999999627 -3199.9999999074 -3240.00000000377 -3440.00000001114 -3799.99999998472 -3800 -3999.99999998755 -3800.00000001245 -2520.0000000882 -3399.99999999751 -3440.00000001245 -4200.00000000244 -4800 -4999.99999998755 -5000 -5000 -5000.00000002046 -5000 -5199.99999999176 -4599.99999998479 -5000 -5200 -5199.99999997885 -5000 -4800.00000002137 -4999.99999997851 -4599.9999999784 -4200.00000002171 -4400.00000002183 -4999.99999997806 -4800.00000002205 -4999.99999997783 -4800.00000002228 -4800 -4999.99999998994 -5199.99999997738 -5199.99999998971 -3440.00000012844 -3640.00000006099 -3320.00000000923 -4999.99999997681 -4599.99999997669 -4399.99999999852 -4000.00000001245 -3639.9999999888 -4600 -4800.00000001245 -5199.99999998846 -3319.9999998733 199.99999999543 799.999999997624 680.00000000498 240.000000002558 39.9999999975557 -160 -359.999999992531 -680 -159.999999997465 1279.99999997759 839.999999981935 39.9999999816623 359.999999997101 -600.000000025534 -2000.00000000711 -2799.99999991392 -3440.00000019763 -5199.99999998755 -5200 -5200 -5000.00000002649 -5200 -5200 -5199.99999998562 -5200 -5199.99999998755 -5000.00000002717 -4999.99999994543 -759.999999973102 -680.000000026989 -1920.00000006466 -1119.99999999253 -3799.99999995307 -4999.99999998448 -4600 -4400 -4600.00000001245 -4799.99999998403 -4600 -4400.00000001245 -4400 -4200 -4000 -3999.99999998334 -3200.00000001667 -2759.99999998506 -3239.99999997802 -3799.99999999004 -4200.00000002967 -4400 -4600 -4599.99999998243 -4400 -4599.99999996976 -4400.0000000179 -4400 -4200 -4199.9999999693 -3640.00000000996 -3160.00000001357 -3360 -3439.99999999252 -3119.99999998877 -2519.99999997619 -1319.99999999604 -160 -160.000000022408 79.9999999936335 519.999999983322 520.000000038472 320.000000006435 439.999999992065 759.99999997957 679.99999999294 680 480.000000006548 640.00000000249 559.999999993406 560 520.00000000415 680.000000020862 -360 -360 -360.000000004979 -439.999999986494 -360 -360 -439.999999986358 -519.999999990666 -1.24487087305177e-08 -1839.99999995467 -3560.00000006028 -3999.99999999804 -3159.99999999304 -5000 -5000 -5000 -5000 -4999.99999983319 -2840.00000001334 -5000 -5000 -5000 -5000 -5000 -5000 -5000 -5000 -5000 -360.00000028881 -360.000000009686 -360 -440.00000000498 -1120.0000007179 -5000 -5000 -5000 -5000 -5000 -5000 -5000 -5000 -5000 319.99999986502 119.99999999751 240.00000000249 400.000000010414
-5000.00000001251 -5000.00000001262 -5200 -5200 -5200 -5199.99999998766 -5200 -5000.0000000133 -5200 -5200 -5200 -5199.99999998766 -5400 -5599.99999998601 -5400 -5400.00000000188 -5600 -5600 -5599.99999998545 -5200.00000001466 -5399.99999999755 -5199.99999998766 -5199.99999998766 -3800.00000001233 -3640 -4400 -4000.00000002154 -3640 -4399.99999995964 -4600.00000001773 -3360.00000004218 -4600 -4400.00000000381 -4800.00000002018 -5000.00000000403 -5199.99999999585 -4600.00000001233 -4400.00000001233 -3360.00000000247 -3640.00000000987 -4200.00000000472 -4599.99999998283 -4400.00000000494 -4400.00000001739 -3799.99999999013 -4400.00000000529 -4399.99999998766 -4200 -3799.99999997286 -3999.99999995513 -2600.00000004286 -3800 -3800 -3159.99999997274 -2519.9999999852 -2280.00000009132 -3280.00000000377 -3280.00000003074 -2280.00000010449 -4199.99999997533 -3640.00000000559 -3999.99999994774 -3400.00000002346 -3160.00000000587 -3400.00000000149 -4400.00000000756 -4800 -4800.00000002012 -5199.99999997976 -5000.00000000801 -5000.00000002046 -5000.00000001233 -5000 -5000 -4999.99999983224 -5000 -4999.99999997885 -4800 -4399.99999999096 -4199.99999999085 -4599.9999999568 -4400.00000002171 -4600 -4600 -4800 -4800.00000001233 -4800.00000002228 -5000 -5199.99999997749 -5000 -4999.9999999896 -4799.99999998766 -3280.00000000425 -4400.00000004616 -4799.99999995066 -4399.99999996572 -3639.99999998892 -3639.9999999888 -3800.00000001234 -4000.0000000457 -5000.00000001154 -4999.99999992872 -679.999999976012 280.000000017087 160.000000007469 80.000000007401 -40.0000000806835 -1639.99999991365 -80.0000000074237 -360.000000005025 -520.000000004934 -680.00000001005 -999.999999959618 -999.999999985198 -160 -359.999999997897 -400.000000161594 -2720.00000015556 -3640 -3440.00000004686 -4920.00000001934 -5199.99999998607 -5200 -5200 -5200 -5200 -5199.9999999855 -5199.99999997305 -5199.99999997294 -5200 -5000 -2239.99999991149 -360 -600.000000022101 -2239.99999995748 -4399.99999997215 -4400.00000001233 -4399.99999998766 -4400 -4200 -4200.00000001609 -4200.00000001233 -4000 -4000.00000001643 -3999.99999995789 -3440.00000001887 -2679.99999999684 -2800.00000001013 -2880.0000000034 -3120.00000002658 -4199.99999993944 -4399.99999998266 -4400 -4400.00000001233 -4400.00000001768 -4599.99999996987 -4599.99999996976 -4399.99999998766 -4199.99999998187 -3799.9999999854 -3159.9999999988 -2760 -3000.00000000247 -3079.99999998122 -759.999999984698 -160.000000013483 -80 80.0000000114937 120.00000000108 360.000000006344 399.999999993634 400.000000002467 440.000000000989 480.000000002467 440.000000006457 440 559.999999993497 439.999999991883 520.000000002467 400.000000002467 519.999999993406 559.99999999585 360.000000017451 -120.000000004195 -360 -360.000000004934 -360 -360 -360 -360 -320.000000006241 -240.000000015041 -1639.9999999956 -3120.00000002262 -3600.00000000247 -3039.99999997719 -2400.00000002985 -5000 -5000 -5000 -5000 -5000 -5000 -5000 -5000 -5000 -5000 -5000 -5000 -5000 -600.00000001919 -360.000000009641 -160 -160 -160 -600.000000014757 -160 -5000 -5000 -5000 -5000 -5000 -5000 -5000 -5000 -5000 -359.999999961858 159.999999992599 160
-5200 -5200 -5200 -5200 -5200 -5200 -5000.00000001307 -5200 -5199.99999998778 -5199.99999998778 -5200 -5200 -5400 -5400 -5600 -5600 -5600 -5600 -5600 -5599.99999998545 -5200 -5199.99999998522 -4800 -3799.99999999022 -3639.99999996578 -4200.00000001825 -4399.99999998778 -4399.99999998778 -4800.00000000335 -4999.99999999306 -4800 -4799.9999999963 -4399.99999999619 -4399.99999998823 -4999.99999998374 -4600.00000001222 -4600 -4400 -3279.99999999177 -2760.00000000797 -3640.00000001355 -4400 -4400 -4200 -4399.99999997226 -3319.999999993 -3800.0000000054 -3799.99999998581 -3639.99999999852 -3799.999999978 -3800.00000001808 -3999.99999999403 -3639.9999999927 -2400.00000004283 -4399.99999994765 -3799.99999996578 -4400.00000001222 -4399.99999998778 -4199.99999998778 -3999.99999998778 -3999.99999998079 -3639.99999999005 -3799.99999999022 -3640 -3640 -3439.99999999546 -4599.99999999233 -4800.00000001222 -4800.00000002012 -5000.00000000801 -5000 -5000 -4999.99999992981 -5000 -4999.99999993889 -4800.00000002092 -4800 -4799.99999998778 -4000.00000002126 -3799.99999999937 -4799.99999997851 -3800.000000032 -4600 -4799.99999998778 -4800 -4800.00000002205 -4800.00000000995 -5000 -5000 -5000 -4800.00000001222 -4800 -2080.00000002285 -5000 -4800 -4999.99999997681 -4000 -4000 -1920.00000019016 -4199.99999998778 -5000 -5199.99999997612 -4199.99999990649 -279.999999994975 200 -80.0000000024443 -120.000000085549 119.999999985221 -2439.99999996772 -1920.0000000347 -2160.00000000534 -1120.00000000585 -679.999999984379 80.0000000022851 -3.20952540019147e-19 5.09317032976682e-09 40 199.999999992417 40 -40.0000000552518 -3799.99999998895 -4920 -5200 -5200 -5199.99999998778 -5199.99999998778 -5199.9999999855 -5199.99999998778 -5000.00000002694 -5200 -5200 -5200 -5199.9999999726 -3639.99999991321 -4799.99999990956 -5199.99999998778 -5000.00000002785 -5200 -5000.0000000793 -3999.99999998403 -4000 -3640.00000002274 -4000.00000001222 -3640.00000000978 -3639.99999998533 -2599.9999999949 -3240.00000001677 -3119.99999999022 -2959.99999998831 -2760.00000007479 -3640.00000000978 -4200 -4200 -4399.99999998778 -4400 -4599.99999996999 -4400 -4200 -4000 -3640 -3079.99999997185 -2280.00000001103 -1920.00000001232 80.0000000074806 -160.000000007333 79.9999999913257 199.999999995111 280.000000005218 120.000000012596 280.000000007753 400 359.999999996078 359.999999997556 359.999999997556 400.000000001546 359.999999995987 280.00000000648 320.00000000083 280.000000006526 240.000000017201 280.000000002444 399.999999997556 280.000000004172 359.99999999161 -360 -360 -360 -360.000000004888 -360.000000004888 -360 -160.000000031548 -880.000000020464 -1920 -2360.00000001373 -3160.00000001622 -3719.99999992843 -2399.99999999551 -2160.00000002332 -2160.0000000063 -5000 -5000 -5000 -5000 -5000 -2439.99999998823 -2919.9999999666 -2920.00000000715 -2680.00000000962 -2880.00000000231 -1559.99999998113 -680.000000004889 -360.000000004888 -360 -360 -360 -360 -440.000000014757 -5000 -5000 -5000 -5000 -5000 -5000 -5000 -5000 -5000 -5000 -160 -160
-5199.99999998789 -5200 -5200 -5000.00000001211 -5000.00000001211 -5199.99999998715 -5200 -5000.00000001307 -5200 -5000.0000000133 -5200 -5200.00000000142 -5599.99999998636 -5599.99999998624 -5600 -5600 -5600 -5600 -5600 -5600 -5400 -5200 -4800 -4400.00000001211 -3800.00000002422 -3800 -4000.00000000313 -4800.00000000324 -5200 -5400 -5399.99999998431 -4999.99999998789 -4800.00000001211 -4600 -4400 -3999.99999997074 -4200.00000001637 -4399.99999998789 -3799.99999991525 -3399.99999997384 -3080.00000000337 -3799.99999998645 -4000 -3640.00000000405 -3800.00000002422 -3640.00000002602 -3799.99999998599 -3640.00000000086 -3800.00000001211 -3800.00000000751 -4000.00000001796 -4599.99999996368 -5000 -4400.0000000245 -4400.00000001842 -4599.99999999358 -4400.00000000654 -4400 -4200.00000001211 -4000.00000001211 -4000 -4000 -3800.00000001933 -3800 -3800 -3440.00000001211 -3199.99999998192 -4400.00000001989 -4999.99999997999 -5000 -5199.99999997976 -5000.00000001211 -5199.99999998789 -4800.00000000847 -4999.99999995356 -5000 -4800 -4600 -4200.00000000597 -4400.00000003041 -4399.99999997294 -4600.00000000938 -4599.99999990862 -4600 -4800.00000000972 -5000 -4999.99999998789 -5000 -5000 -4399.99999993961 -4199.99999999263 -3640.00000000969 -3440.00000006744 -4800.00000001211 -4600.00000002296 -4800.00000001211 -5000 -4999.99999994401 -5199.99999998869 -4799.99999999932 -5000.00000002365 -5000 -5000 -5199.99999997601 -1919.99999990599 119.999999997578 -160.000000012221 -1079.99999996354 -1639.99999998278 -1280.00000002988 -2119.99999998593 -1679.99999991927 -1359.99999991668 -2.60342858382515e-08 -1199.99999997558 -4279.99999973537 159.999999987142 -6.52451632848346e-19 -6.96900315184199e-09 120 39.9999999975785 -3640.00000000969 -4920.00000001966 -5000.00000002626 -5199.99999998789 -5199.99999998789 -5200 -5199.99999998789 -5200 -5200 -5200 -5200 -5200 -5200 -5200 -5200 -5199.99999997226 -5199.99999998425 -5000.00000002797 -5200 -5599.99999990348 -4199.99999997169 -3640 -3360.00000002784 -2800.00000000969 -2920.00000000242 -3279.99999998845 -3359.99999998694 -3279.99999999953 -3639.99999998547 -3640 -4000 -4000 -4199.99999997033 -4200 -4200.0000000299 -4399.99999998209 -4200 -4000 -3640 -2959.99999999023 -1919.99999998892 -160.000000016166 -119.99999999626 79.9999999913939 239.999999993793 200.000000003809 320.000000006253 319.999999992292 280.000000006298 320.000000002421 280.000000007265 359.999999997578 359.999999997578 400.000000014393 359.999999998408 240.000000004036 240 240 319.999999995896 399.999999995873 519.999999989279 399.999999989234 200 -1.57001522891007e-08 -360 -359.999999991473 -360 -360.000000008617 -360.000000004843 -360 -440.000000008754 -1320.00000001606 -1799.99999998915 -1359.99999996809 -360.000000007265 -360 -200.000000059879 -1640.00000008533 -2120.00000001909 -2479.99999999758 -2519.99999999734 -2760.0000000141 -2959.99999999981 -2799.99999999534 -2560.00000000242 -2000.00000002462 -2159.99999999043 -1879.99999997624 -1120.00000001211 -759.999999975966 -360 -360 -439.999999985425 -360 -439.999999985334 -599.999999995157 -1120 -2080.00000015153 -5000 -5000 -5000 -5000 -5000 -5000 -5000 -5000 -5000 -5000
-5199.99999998801 -5200 -5199.9999999996 -5000.00000001199 -4800 -5000.00000001273 -5000.00000001285 -5200 -5199.99999998801 -5199.9999999988 -5200 -5200.00000001341 -5600 -5600 -4400.00000004798 -5599.99999999812 -5599.99999995003 -5400 -5200.00000001199 -5200.00000001199 -5200 -5199.99999999744 -4200.00000001466 -3280.00000001769 -2480.00000001853 -3120.0000000006 -4799.99999998801 -5400 -5400.00000000335 -5599.99999998454 -5399.99999998442 -5199.99999998431 -5000 -4800 -4799.99999997993 -4399.99999997299 -3120.00000003118 -3800.00000002049 -3999.99999992053 -3039.99999998876 -2760.00000002245 -3239.99999999903 -3280.0000000024 -3040.00000002526 -2679.99999999756 -2320.00000000305 -3999.99999998801 -4199.99999997601 -4200.00000000563 -4999.99999997601 -5000 -4999.99999998801 -5000.00000001199 -4800 -4799.99999998801 -4400 -4600 -4400.00000000665 -4400.00000000676 -4599.99999998113 -4400.00000000699 -4200 -4199.99999999278 -3800 -3639.99999998801 -3639.99999997653 -3199.99999999607 -3400.00000001174 -4800 -4999.99999997999 -5000 -5000 -5000.00000000836 -5000 -2520.00000003777 -4800.0000000087 -4999.9999999792 -4799.99999992553 -4799.99999996697 -4800 -4600 -4600.00000002137 -4799.99999997851 -4600 -4800 -4800 -4000.00000001017 -2520.00000006717 -4599.999999988 -3280.00000002913 -2079.99999997009 -3639.99999998321 -4800.00000001063 -4800.00000001199 -5000 -4599.99999998903 -5000 -5000.00000001199 -5000.0000000233 -5199.999999988 -5199.99999997647 -5199.999999988 -5000 -5000 -5000 -4799.99999998801 -3199.9999999088 -1520.00000000966 -1839.99999996882 -1800.00000000525 -1879.99999999253 -1720.00000000016 -3600.00000003373 -2839.99999998765 -4599.99999996619 -3519.99999994548 -2879.9999999445 -1519.99999991187 160.000000001762 -199.999999976706 80.0000000031264 200.000000000387 -2240.00000016796 -4920 -5000.00000002626 -5199.99999998562 -5200 -5199.999999988 -5000.00000002672 -5199.99999998516 -5200 -5200 -5200 -5000.00000002728 -5000.0000000274 -5200 -5000.00000002763 -5000.00000002774 -5200 -5199.99999997203 -5199.99999997192 -5000 -3799.99999996056 -2799.99999999317 -2520 -3279.99999997321 -3200.00000000575 -2960.00000003803 -3279.9999999946 -3640 -3640 -3640 -3640 -3640.00000002365 -3800 -4000 -4000.00000001199 -3999.99999998198 -3800 -3400.00000000605 -2400.0000000072 -920.000000016985 -120 80.0000000061391 119.999999997601 239.999999997601 280.000000002399 239.99999998754 160.000000003854 200.000000003877 360.000000002399 359.999999996078 319.999999998454 440.000000006366 440.000000008788 280 239.999999997601 200.000000004059 160.000000010561 320.000000001705 559.999999997601 520.000000002399 519.99999999103 519.999999987415 239.999999993383 -160.000000033197 -360 -360 -360.000000008617 -360 -360 -360 -360.000000004798 -360.00000010674 -360 -360 -359.999999988006 -360.000000004798 -360 -720.000000062619 -2999.9999999928 -3120.0000000046 -2959.99999999554 -2400.0000000003 -2080.0000000072 -1560.00000001668 -1400.00000000471 -1720.0000000024 -1120.0000000024 -1120.0000000024 -519.999999990405 -360 -360.000000014484 -440 -360 -360 -440 -519.999999990087 -680.000000029513 -1440.00000008881 -5000 -5000 -5000 -5000 -5000 -5000 -5000 -5000 -5000
-5200 -5199.99999998812 -5200 -5200 -5000 -5000.00000001262 -5199.99999999915 -5199.99999999903 -5200 -5200 -5000.00000001319 -5400.0000000133 -5600 -5600.00000001188 -5600.00000001188 -5599.99999998812 -5399.99999998812 -5199.99999999022 -5400.00000000222 -4999.99999995015 -4199.99999999756 -4399.99999999744 -3000.00000001343 -2119.99999999707 -3799.9999999934 -4799.99999999113 -5400.00000000313 -5600 -5600 -5599.99999998465 -5599.99999998454 -5399.9999999963 -5000 -5199.9999999842 -4600.00000001592 -4599.99999999227 -3799.99999994243 -1800.0000000549 -3279.99999997592 -2920.00000000751 -2080.00000001188 -1600.00000001426 -3439.99999991961 -2479.99999999292 -2480.00000000042 -3440.00000003619 -4399.99999997624 -4800 -4800 -4800 -4800.00000001188 -4999.99999998215 -4800.0000000058 -3999.99999996851 -4599.99999998181 -4600 -4600 -4400.00000001853 -4600 -4600 -4400 -4399.99999998812 -4000.00000000722 -3800 -3640 -3240.00000000605 -3159.99999999762 -3320.00000000393 -4200.00000003956 -4799.99999999198 -4999.99999999187 -5199.99999999176 -5000 -4599.99999997283 -3360.00000001492 -4799.99999996521 -4600.0000000295 -4599.99999998516 -4800 -4000.00000004479 -4600.00000001188 -4600.0000000025 -4399.99999997152 -4000.0000000187 -4799.99999999028 -3280.00000000434 -2080.00000007356 -3639.99999997862 -1600.00000003357 -2520 -4199.99999998812 -4999.9999999776 -4600.00000001313 -3400.00000012386 -4800.00000002274 -5199.99999997715 -3999.9999999992 -5000.0000000112 -5199.99999998812 -5200 -5199.99999997658 -4800.00000001188 -5199.99999997635 -5000 -5000 -4999.99999998789 -4800 -2679.99999999342 -2000.00000000238 -2520.00000000265 -1880.00000001838 -3480.0000000095 -3160.0000000036 -3959.99999999264 -4080 -4320.00000002037 -4760.00000000475 -5040 -4360.0000000404 -4639.99999987062 -1840.00000007294 -560.000000007537 -1400.00000001318 -4920 -5199.99999998812 -5200 -5200 -5199.99999998539 -5200 -5200 -5199.99999998812 -5199.99999998494 -5200 -5199.99999998471 -5200 -5200 -5199.99999998437 -5199.99999998425 -5199.99999998414 -5000.00000002785 -5000.00000001609 -5000 -5000 -3639.99999996512 -3200 -3280.00000000095 -3040.00000002487 -3639.99999996286 -3640 -3639.99999996046 -3359.99999999762 -3360.00000000128 -3200 -3240.00000000238 -3640 -3640 -3440.00000001188 -3640 -3639.99999996736 -2959.99999999635 -1679.99999994557 -119.999999991292 200 200.000000010868 200.000000009902 240 399.999999997624 200.000000010039 239.999999996146 199.999999997624 239.999999997624 240.000000003922 279.999999989734 200.000000006344 239.999999998386 240.000000006389 240 200.000000002376 160 120 120.000000006503 200.000000008299 360.000000008924 400.000000001819 280.000000001842 240 159.999999981969 -160.000000007128 -359.99999998663 -360 -360 -439.999999986494 -360 -360 -360 -360 -360.000000008981 -360 -360 -360 -360 -640.000000084356 -1960.000000012 -959.999999983981 -360 -360 -360.000000033128 -999.999999997669 -1079.99999998337 -679.999999995202 -360 -360 -439.999999990314 -439.999999990268 -360 -360 -360 -360.000000009913 -439.999999990041 -440.000000029513 -1440 -3800.00000022271 -5000 -5000 -5000 -5000 -5000 -5000 -5000
-5200 -5200 -5199.9999999996 -5199.99999999949 -5199.99999998761 -5000.00000001251 -5200 -5000.00000001273 -5199.99999998823 -5200 -5200 -5200 -5600 -5600.00000000165 -5799.99999998647 -5600.00000001364 -5600.00000001375 -5600 -5400.00000000222 -5600 -4800 -4000 -3640 -2919.99999999765 -4000.00000001467 -5399.99999998823 -5400 -5600 -5600 -5600 -5400 -5400 -5200 -5000.00000001569 -5200 -4400.00000000415 -4000.0000000278 -3999.99999997987 -1479.99999999743 -4399.9999999601 -2399.99999998206 -2759.99999994689 -3640.00000000051 -4200 -4200.00000001177 -2239.99999995082 -4799.99999998823 -4600.00000001728 -4799.99999998823 -4799.99999998249 -4600.00000001762 -4800.00000000597 -4600.00000001177 -4800.0000000062 -4799.99999998823 -4000.00000004172 -3240.00000006302 -4599.99999999335 -4400.00000000676 -4400 -4400 -4200.0000000071 -4200 -3999.9999999809 -3640 -3319.99999999462 -2880.00000000164 -3280.00000000862 -3800.00000001177 -4800 -4799.99999999187 -4999.99999998823 -4999.99999996811 -3440.00000004105 -4800 -4600.00000002916 -4800.00000001177 -4800 -4599.99999995256 -3799.99999994457 -4599.9999999316 -4799.99999996709 -4799.99999992713 -4800.00000000216 -4999.9999999294 -4800 -3199.99999991423 -4000.00000001688 -4800.00000001017 -4999.99999997794 -5000 -5000.00000002228 -5199.9999999776 -5000 -4800.00000000091 -4800.00000001177 -4999.99999992462 -5199.99999997703 -5199.99999998869 -5200 -5000 -4600.00000003507 -5000.00000001177 -4800.00000003553 -4400.00000003553 -5000 -3999.99999990956 -4800 -3999.99999999932 -4119.99999999294 -4159.99999997972 -2880.00000006262 -3559.9999999962 -4119.99999999975 -3799.9999999971 -3880.0000000053 -4400.00000000331 -4679.9999999926 -4639.99999997972 -4199.99999999726 -3159.99999993851 -1279.99999999486 -40.0000000488058 -4920 -5200 -5000.00000002615 -5199.9999999855 -5199.99999998539 -5199.99999997351 -5200 -5199.99999998505 -5199.99999998823 -5000.00000002694 -5200 -5199.99999998823 -5199.99999998448 -5000.0000000274 -5199.99999998425 -5200 -5200 -5000.00000002785 -4999.9999999838 -4800.00000002808 -3280.00000005075 -3799.99999997023 -3800 -3800 -3800.00000001688 -3800.00000001177 -3800 -3640 -3359.99999997783 -2680.00000001177 -2999.99999999765 -3159.99999999882 -3120.00000000235 -2959.99999999877 -3080.00000000235 -3000 -2320.00000001907 -840.000000009129 -280.000000012096 40.0000000060709 240 319.999999997647 240.000000002353 320.000000000898 200.000000006185 160.000000003854 160 160.000000006253 200 239.999999996055 200.000000002353 200.000000006344 240 239.999999995964 240.000000004059 200 199.999999997647 199.999999997647 479.999999997647 520.000000001819 560.000000012585 479.999999985482 400 520.000000002353 480.000000002353 319.999999989029 -360 -439.999999986585 -360.00000001346 -360 -360.000000008845 -359.99999999111 -360.000000008936 -360 -360 -360 -360 -360 -40.0000000556611 -6.98037183801318e-09 -360 -360 -360 -680 -600.000000009459 -600.000000018827 -439.99999999045 -360 -360 -440 -440 -360 -360 -360 -360 -440 -440.000000019418 -920.000000014756 -3320.00000021906 -5000 -5000 -5000 -5000 -5000 -5000 -5000
-5200 -5200 -5199.99999998835 -5199.99999999949 -5199.99999999937 -5200 -5000.0000000125 -5199.99999998835 -5200 -5199.99999998835 -5200 -5000.00000001307 -5400.00000001165 -5600.0000000133 -5600.00000001165 -5599.99999999022 -5799.99999998636 -5400.00000001376 -5599.99999998613 -5400.00000000233 -5400 -5199.99999997413 -5199.99999999102 -4799.99999995339 -4799.99999998835 -5200.00000000301 -5599.99999998522 -5400.00000000324 -5400.00000000335 -5599.99999999653 -5599.99999998476 -5400 -5199.99999999619 -5000 -5000.00000000403 -4800.0000000158 -4600.00000002757 -4799.99999999562 -4800 -4599.9999999954 -4400 -4200.00000002814 -4599.99999996504 -4399.99999997669 -4799.99999996635 -4399.99999998835 -4399.99999999915 -4799.99999998835 -4799.99999998272 -4799.99999998835 -4800 -4800 -4800 -4800 -4799.9999999801 -4600.00000001808 -4600 -3319.99999995005 -4200.00000000676 -4599.99999993963 -4399.99999998135 -4599.99999998835 -4199.99999998835 -4199.99999998101 -3799.99999999068 -3439.99999999616 -3039.99999999073 -3280 -3400.00000000158 -4800 -4800.00000001978 -5000 -4800.00000002001 -3440.00000006925 -4600.00000002024 -4800 -4200.00000003496 -4200.00000001165 -4599.99999998835 -4599.99999999085 -4600 -4799.99999998835 -3359.99999998603 -4799.99999991291 -1719.99999997008 -3999.9999999531 -4800.00000000995 -4999.99999998835 -4800 -5000 -5000 -4799.99999995066 -5000 -4999.99999996777 -4000.00000005508 -3800.00000000288 -5000 -5199.99999998835 -5000.00000002296 -5000.00000001165 -5200 -5200 -5000 -5199.99999998835 -4799.99999996402 -4999.99999998789 -4800.00000001222 -4800.00000001233 -4399.9999999759 -3800.00000003678 -3799.99999999068 -3639.99999997834 -3119.99999999559 -3480.00000002234 -4239.99999999563 -4679.99999999502 -4719.99999999835 -4999.99999999498 -4640.00000000699 -4079.99999999178 -2039.99999995969 -2239.99999998369 -679.999999988404 -4920 -5000.00000002592 -5199.99999998562 -5200 -5200 -5000.00000002638 -5199.99999998835 -5200 -5200 -5200 -5200 -5200 -5000.00000002717 -5200 -5000.0000000274 -5199.99999998835 -5200 -5000 -5000 -4999.99999995106 -3320.00000000191 -3640.00000003421 -3800.00000000733 -4199.99999999488 -4000.00000001165 -3999.999999983 -3999.99999997124 -3799.99999998622 -3639.99999998266 -199.99999997674 -2760.00000002104 -2920.00000000587 -2880.00000002356 -2760.00000000358 -2920.0000000036 -2919.99999999767 -2520 -1440 -80.000000008356 -79.9999999879037 40.0000000084015 79.999999996237 239.999999998545 400.000000000853 279.999999990007 160.000000006185 200.000000007753 279.9999999961 239.999999997669 160.000000003945 240.000000003968 120.00000000399 160 240.000000002331 240.000000002331 200 440.000000004661 399.999999993008 640.000000009322 760.000000016314 1039.99999997576 1039.99999998369 799.999999960573 559.999999989143 479.999999995714 559.999999995691 479.999999980014 -360.000000008708 -360 -360 -160.000000002808 279.999999999784 319.999999990871 119.999999997669 -160.000000025193 -360 -360 -360 -360.000000009209 -360.000000004661 -360 -360.000000004661 -440.000000004661 -680 -759.99999998588 -440.000000009322 -439.999999985789 -360 -360.000000009641 -360 -440 -360.000000009777 -360 -360.000000004661 -359.999999995339 -360.000000009959 -440.000000010004 -680 -1120 -5000 -5000 -5000 -5000 -5000 -5000 -5000
-5199.99999998846 -5200 -5199.9999999996 -5200 -5000.00000001216 -5199.99999999926 -5199.99999999915 -5199.99999999903 -5199.99999998846 -5199.9999999988 -5199.99999999869 -5199.99999999858 -5400.00000001154 -5399.99999996703 -5600 -5799.99999998658 -5400.00000001353 -5600 -5599.99999998846 -5599.99999999767 -5400.00000000244 -5799.99999998334 -5399.99999997425 -5599.99999998567 -5200.0000000029 -5600 -5600 -5599.99999999676 -5400.00000001154 -5400 -5400.00000001154 -5400 -5199.99999998846 -4999.99999998846 -4800.00000001557 -4999.99999999585 -4599.99999999574 -4200.00000003462 -4600 -4799.99999999306 -4799.99999998374 -4600 -4000.00000000495 -4200 -4400.00000000517 -4400.00000002836 -4800.00000001154 -2120.00000007924 -4600 -4799.99999999426 -4600.00000001739 -4800 -4600 -4800 -4800 -4600.00000001796 -4799.99999999346 -4400.00000000489 -4400.0000000183 -4400.00000001154 -4599.99999999301 -4400.0000000071 -4199.99999999568 -4199.99999998846 -3799.99999998481 -3359.99999999626 -3199.9999999647 -3280 -3440.00000000559 -4800.00000000801 -4999.99999998846 -5000.00000001154 -4600.00000000835 -4799.99999997999 -4600 -4400.00000002024 -4599.99999995322 -4600.00000001154 -4600 -4799.99999999085 -4799.99999998846 -4800.00000001154 -4999.99999997897 -4800.00000000961 -4800 -2279.99999997451 -5000 -4800.00000001154 -4800 -4800.00000002183 -4399.99999990222 -4999.99999998744 -5000.00000001063 -5000 -4800 -4800.00000001097 -5000.00000002262 -5199.99999998846 -5200 -5000 -5000.00000001154 -5199.99999997681 -5000 -5000 -5200 -5199.99999997635 -4800.00000002376 -4999.99999997613 -4599.99999998755 -3399.99999998975 -3999.99999998872 -4000.00000001279 -3999.99999998846 -4560.00000001213 -4799.99999999769 -4959.99999999966 -5040 -5040.00000002039 -4759.99999999836 -3719.99999999452 -1999.99999997975 -1959.99999999029 -1600.00000004293 -4920 -5199.99999998846 -5200 -5200 -5000.00000002615 -5199.99999998846 -5199.99999998516 -5200 -5200 -5199.99999998482 -5200 -5200 -5000.00000002706 -5200 -5200 -5200 -5199.99999998403 -5199.99999998391 -5000 -4600 -3640 -3800 -4000.00000002819 -4400 -4200 -4200 -4000 -3800 -3640 -3360 -3159.99999998254 -760.000000016405 -3120.0000000201 -3159.99999999642 -3039.99999999769 -2999.99999999769 -2600 -1719.99999996737 -119.999999993997 -79.9999999953843 40.0000000060481 119.999999991621 239.999999996214 200.000000003809 200 239.999999997692 240.000000002308 200 200 200.000000003945 200.00000000166 120.00000000399 200.000000002308 319.999999995964 239.999999993633 319.999999997692 399.999999997692 400.000000010562 679.999999997692 1040.0000000213 1119.99999998699 1280 1480.00000000462 919.999999991473 799.999999965053 919.99999997492 560 -360 -519.999999999523 -360 560 479.999999986664 199.999999993224 80.0000000044906 40.0000000045134 39.999999981776 -160 -360 -360 -360 -360 -360 -360.000000009368 -440 -360 -360 -160.000000016155 -360 -360 -360 -360 -360.000000009777 -360 -360.000000009868 -360 -439.999999995384 -440.000000010004 -600.00000001005 -1000.0000000101 -1720.00000007333 -5000 -5000 -5000 -5000 -5000 -5000
-5199.99999998857 -5199.99999999971 -5000.00000001182 -5000.00000001194 -5200 -4800.00000001216 -5000.00000001228 -5200 -5199.99999999892 -5199.9999999988 -5199.99999999869 -4999.99999998857 -5200 -5599.99999999835 -5600 -5600.00000001142 -5600.00000001142 -5600.00000001142 -3640.00000008134 -5799.99999999767 -5600.00000001387 -5799.99999998602 -5599.99999998857 -5600 -5400 -5400.00000000301 -5400 -5599.99999999676 -5599.99999998522 -5599.9999999851 -5400.00000001501 -5400 -5200.00000001143 -5000 -4800.00000001143 -5399.99999999585 -3359.99999992712 -4999.99999997277 -4600.00000000898 -4600.00000001143 -4600.00000000472 -4600 -4600.00000000494 -4400.00000000506 -4599.99999998857 -4599.99999998329 -4599.99999998857 -4799.99999998306 -2240.00000014427 -4400.00000001143 -4400.00000000585 -4400 -4400.00000001751 -4599.99999998238 -4400 -4600 -4799.99999998204 -4400 -4599.99999998181 -4400.00000000688 -4399.99999999301 -4400.00000001853 -4200 -4199.99999999267 -3319.99999999771 -3319.99999994856 -2280.00000003837 -3359.99999992532 -3800.00000001143 -4800.00000001143 -4999.99999999187 -4999.99999998033 -4599.99999996044 -4000.00000001143 -4599.99999998857 -4600.00000002012 -4600 -4600 -4399.999999953 -4799.99999998857 -4799.99999998857 -4999.99999998857 -5199.99999997908 -5000 -5000 -3999.99999997293 -4800.00000001143 -4800.00000000136 -5000 -4999.99999997601 -5200 -5000.00000001143 -5200 -5000 -5000.00000001142 -5000.0000000224 -5199.99999998857 -5200 -5200 -3399.99999998629 -4600.00000002296 -5000.00000001165 -5000 -5000.00000001188 -5200 -4999.99999997647 -4800 -4999.99999997624 -3639.99999996228 -4000.00000009481 -2520.00000010962 -4200.00000002285 -4199.9999999871 -3520.00000001695 -4040.00000000822 -4799.99999998364 -5079.99999998056 -4880.00000000457 -4759.99999998141 -3399.99999999726 -1399.99999997019 -1879.99999998307 -2200.00000000562 -4920 -5199.99999998573 -5200 -5200 -5199.99999998539 -5199.99999997385 -5000.00000002626 -5199.99999998505 -5200 -5199.9999999734 -5200 -5200 -5200 -5199.99999998437 -5199.99999998425 -5199.99999997271 -5200 -5000.00000001143 -5000 -2000.00000017199 -2680.00000009041 -3800.00000002797 -4000.00000001143 -4200.00000001142 -4200.00000002831 -4200 -4199.99999997146 -3999.99999998278 -3640 960.000000039972 -519.999999974693 -1920.00000008774 -3640 -3639.99999996351 -3199.9999999964 -2959.99999999409 -2279.99999999134 -440.000000024647 -80 -4.24750782197492e-19 -79.9999999925194 79.9999999977149 199.999999997715 320 280 240.000000003854 279.999999996123 199.999999993815 120.000000002285 120.000000002285 200 240 279.999999995987 240 280.000000001773 280.000000006366 400.00000000457 440.000000010539 680 1280 1559.99999999659 1200 920.000000012721 1280.00000006715 799.999999984857 839.99999998048 679.999999993383 -160.000000021771 -680 -439.99999998663 440.000000004422 239.999999997715 199.999999991064 119.999999997715 119.999999995487 4.53610482535187e-09 39.9999999977149 -160.000000029763 -360 -439.999999990746 -360 -440 -360 -360.00000000457 -280.000000007014 -79.9999999952479 40 80 -40.0000000025352 -360 -439.999999985698 -360 -360.00000000457 -360 -440 -440 -440.00000000457 -520 -519.999999989905 -440.000000014711 -520.00000000457 -5000 -5000 -5000 -5000 -5000
